ply
		format ascii 1.0
		element vertex 33670
		property float x
		property float y
		property float z
		property uchar red
		property uchar green
		property uchar blue
		end_header
7431.795898 -11608.552734 68175.851562 155 253 223
7539.142090 -11611.541016 68193.398438 154 252 224
7646.014648 -11613.727539 68206.242188 154 252 223
7754.059570 -11617.611328 68229.046875 152 252 221
7861.845703 -11621.007812 68249.000000 153 252 219
7969.817871 -11624.586914 68270.015625 155 253 218
8078.240723 -11628.719727 68294.289062 156 254 219
8185.589844 -11631.220703 68308.976562 155 255 217
8294.373047 -11635.670898 68335.109375 150 255 218
8402.926758 -11639.689453 68358.718750 143 255 216
8511.539062 -11643.689453 68382.203125 137 252 211
8620.565430 -11648.150391 68408.398438 133 249 209
8728.224609 -11650.677734 68423.242188 136 253 213
8836.777344 -11654.324219 68444.664062 137 255 215
8944.484375 -11656.781250 68459.093750 137 254 217
9052.395508 -11659.444336 68474.734375 137 254 218
9161.790039 -11663.934570 68501.101562 134 254 215
9270.578125 -11667.557617 68522.382812 138 255 219
9379.662109 -11671.467773 68545.343750 144 255 227
9486.631836 -11672.689453 68552.515625 144 255 229
9594.003906 -11674.374023 68562.414062 138 255 222
9703.692383 -11678.808594 68588.460938 134 253 218
9813.314453 -11683.068359 68613.476562 132 251 216
9926.970703 -11691.989258 68665.867188 132 251 216
10040.478516 -11700.547852 68716.132812 131 249 215
10155.060547 -11710.166016 68772.617188 131 248 219
10270.819336 -11720.927734 68835.812500 127 243 214
10383.027344 -11727.458984 68874.171875 128 242 214
10500.378906 -11739.607422 68945.515625 127 238 209
10616.386719 -11750.024414 69006.695312 132 241 212
10734.007812 -11762.001953 69077.039062 129 238 207
10855.163086 -11777.578125 69168.515625 126 233 203
10972.181641 -11788.405273 69232.109375 121 229 197
11097.119141 -11807.449219 69343.953125 125 230 200
11215.451172 -11819.168945 69412.781250 125 229 196
11342.192383 -11839.442383 69531.843750 124 225 194
11486.203125 -11877.194336 69753.554688 126 225 194
11627.669922 -11911.637695 69955.835938 127 223 193
11798.774414 -11975.526367 70331.054688 124 218 189
11948.910156 -12017.161133 70575.570312 124 217 188
12130.531250 -12089.419922 70999.937500 125 215 188
12139.518555 -11989.877930 70415.335938 115 203 175
12059.855469 -11805.326172 69331.476562 123 207 179
13396.095703 -12997.833984 76334.960938 136 211 186
16435.773438 -15807.874023 92838.039062 94 153 133
1198.494141 -17424.082031 103267.531250 67 134 111
998.949036 -12815.748047 75955.257812 78 151 125
1042.473145 -11967.291016 70926.695312 80 154 126
1167.188232 -12123.680664 71853.578125 89 165 134
1251.427124 -11868.997070 70344.140625 88 166 133
1360.785156 -11874.231445 70375.164062 89 172 138
1467.847290 -11860.139648 70291.640625 88 177 142
1572.468140 -11829.625000 70110.796875 93 185 152
1678.654297 -11814.063477 70018.562500 92 186 155
1782.537842 -11785.162109 69847.273438 86 183 152
1887.770752 -11767.975586 69745.414062 88 188 158
1991.787964 -11745.477539 69612.078125 91 194 165
2096.816406 -11730.943359 69525.937500 93 200 174
2201.824463 -11717.717773 69447.554688 88 198 171
2305.211670 -11697.498047 69327.710938 88 201 173
2409.435303 -11683.129883 69242.562500 90 206 177
2512.335205 -11663.838867 69128.226562 87 205 174
2616.099854 -11649.973633 69046.046875 91 209 175
2720.143066 -11638.387695 68977.382812 87 205 170
2823.413086 -11624.492188 68895.023438 91 210 172
2928.020508 -11616.913086 68850.109375 90 209 169
3032.184082 -11608.166016 68798.265625 92 211 171
3137.400879 -11603.908203 68773.031250 98 218 179
3242.650635 -11600.046875 68750.148438 94 215 178
3346.411621 -11591.274414 68698.156250 95 215 179
3450.340820 -11583.605469 68652.703125 98 219 182
3554.037109 -11575.636719 68605.476562 99 219 183
3658.998535 -11572.129883 68584.695312 98 219 183
3764.297119 -11569.857422 68571.226562 101 222 185
3868.802979 -11565.339844 68544.453125 103 224 187
3973.654785 -11562.069336 68525.070312 105 226 189
4077.906982 -11557.270508 68496.625000 109 230 193
4182.497070 -11553.647461 68475.148438 110 230 194
4287.072266 -11550.162109 68454.492188 108 228 193
4391.224121 -11545.733398 68428.250000 111 230 195
4495.928223 -11542.928711 68411.625000 114 234 198
4600.081543 -11538.872070 68387.585938 115 234 198
4704.525879 -11535.712891 68368.859375 117 235 200
4809.075684 -11532.944336 68352.453125 119 238 201
4913.395508 -11529.755859 68333.554688 119 238 199
5018.298340 -11528.040039 68323.382812 121 239 201
5122.951660 -11525.833008 68310.304688 123 242 202
5228.028809 -11524.651367 68303.296875 122 242 202
5333.000000 -11523.286133 68295.210938 120 243 201
5437.338867 -11520.634766 68279.492188 118 242 199
5541.809570 -11518.357422 68266.000000 118 244 201
5645.405273 -11514.381836 68242.437500 122 250 206
5749.211914 -11510.973633 68222.234375 125 252 210
5852.826660 -11507.310547 68200.531250 128 253 211
5955.932617 -11502.794922 68173.765625 132 254 215
6059.774902 -11499.834961 68156.218750 138 255 220
6162.938477 -11495.708984 68131.765625 145 255 223
6266.468750 -11492.394531 68112.125000 146 254 222
6370.378418 -11489.874023 68097.179688 154 255 227
6474.371582 -11487.583008 68083.609375 163 255 231
6579.262207 -11486.932617 68079.750000 169 255 227
6684.250977 -11486.470703 68077.015625 174 255 226
6789.336914 -11486.187500 68075.335938 178 255 229
6894.865234 -11486.650391 68078.078125 179 255 228
7000.785156 -11487.742188 68084.546875 178 255 230
7106.851074 -11489.038086 68092.226562 179 255 230
7213.529297 -11491.270508 68105.468750 177 255 231
7319.930176 -11493.003906 68115.734375 172 254 229
7426.622559 -11495.138672 68128.390625 169 254 230
7533.878906 -11498.075195 68145.789062 167 255 232
7640.685059 -11500.252930 68158.703125 164 255 232
7748.666992 -11504.117188 68181.601562 163 255 234
7856.372070 -11507.471680 68201.484375 161 255 232
7964.288086 -11511.042969 68222.648438 160 255 231
8072.713867 -11515.247070 68247.562500 159 255 232
8180.079590 -11517.850586 68262.992188 156 255 230
8288.915039 -11522.431641 68290.140625 149 254 228
8397.487305 -11526.535156 68314.460938 142 254 225
8506.111328 -11530.606445 68338.593750 142 254 227
8615.167969 -11535.158203 68365.570312 142 254 227
8722.817383 -11537.737305 68380.859375 142 255 227
8831.381836 -11541.451172 68402.867188 140 254 227
8939.073242 -11543.950195 68417.679688 140 255 226
9046.962891 -11546.642578 68433.632812 139 254 225
9156.333008 -11551.141602 68460.296875 133 251 221
9265.070312 -11554.747070 68481.671875 138 255 224
9374.194336 -11558.750000 68505.390625 137 255 223
9481.240234 -11560.126953 68513.554688 136 255 221
9588.728516 -11562.009766 68524.710938 137 255 222
9698.552734 -11566.635742 68552.125000 134 254 219
9808.245117 -11571.005859 68578.031250 134 254 219
9922.070312 -11580.106445 68631.968750 129 248 213
10035.727539 -11588.820312 68683.609375 127 246 212
10150.467773 -11598.589844 68741.515625 124 241 210
10266.437500 -11609.545898 68806.445312 122 237 208
10378.766602 -11616.204102 68845.906250 126 239 209
10496.255859 -11628.443359 68918.445312 125 236 207
10612.365234 -11638.923828 68980.562500 128 237 207
10729.971680 -11650.819336 69051.062500 127 234 204
10850.828125 -11665.976562 69140.898438 128 236 204
10967.399414 -11676.275391 69201.929688 133 239 207
11092.695312 -11695.574219 69316.312500 137 240 210
11213.169922 -11709.467773 69398.656250 133 237 206
11340.668945 -11730.365234 69522.507812 129 230 199
11481.075195 -11764.094727 69722.414062 128 226 195
11616.845703 -11792.491211 69890.710938 128 224 193
11782.719727 -11850.641602 70235.351562 129 224 194
11934.574219 -11893.757812 70490.890625 129 221 192
12113.842773 -11963.166992 70902.257812 126 216 185
12138.288086 -11879.804688 70408.195312 124 213 184
12080.338867 -11718.001953 69449.234375 111 198 171
13242.007812 -12731.664062 75456.921875 109 186 161
15625.608398 -14892.200195 88261.796875 107 170 148
1178.562988 -16977.308594 101550.164062 69 135 113
988.475403 -12565.176758 75158.890625 90 164 136
1036.470947 -11789.359375 70518.328125 70 144 117
1165.513916 -11995.356445 71750.500000 69 145 113
1252.271606 -11768.174805 70391.609375 83 160 128
1361.116943 -11768.293945 70392.320312 84 165 132
1467.775757 -11750.890625 70288.218750 82 169 137
1572.454590 -11721.126953 70110.195312 81 172 141
1678.672241 -11705.932617 70019.304688 82 175 144
1782.811890 -11678.967773 69858.015625 84 182 151
1888.350220 -11663.722656 69766.820312 87 188 158
1992.375732 -11641.285156 69632.617188 82 187 158
2096.981689 -11624.366211 69531.414062 86 193 167
2201.451660 -11608.379883 69435.789062 84 194 167
2304.595703 -11587.213867 69309.187500 84 196 168
2408.892334 -11573.465820 69226.953125 83 198 168
2511.850342 -11554.730469 69114.882812 83 200 168
2615.603271 -11541.031250 69032.945312 85 202 168
2719.622803 -11529.537109 68964.187500 90 207 171
2822.859863 -11515.717773 68881.531250 93 210 173
2927.427734 -11508.133789 68836.171875 95 212 173
3031.537354 -11499.345703 68783.601562 95 212 172
3136.700684 -11495.012695 68757.679688 93 212 174
3241.899170 -11491.089844 68734.218750 97 216 178
3345.612061 -11482.316406 68681.742188 96 215 177
3449.508301 -11474.693359 68636.140625 102 221 183
3553.180176 -11466.800781 68588.929688 107 225 187
3658.125732 -11463.357422 68568.335938 99 218 180
3763.415039 -11461.154297 68555.156250 104 224 185
3867.906250 -11456.708008 68528.562500 107 226 187
3972.737305 -11453.479492 68509.250000 109 229 190
4076.977051 -11448.756836 68481.007812 111 230 191
4181.563965 -11445.224609 68459.875000 108 228 189
4286.127441 -11441.803711 68439.414062 109 229 190
4390.251953 -11437.403320 68413.093750 112 229 192
4494.916016 -11434.583984 68396.226562 111 229 192
4598.997070 -11430.444336 68371.468750 111 229 192
4703.361816 -11427.179688 68351.937500 114 229 192
4807.823242 -11424.289062 68334.648438 121 237 196
4912.054199 -11420.987305 68314.898438 124 239 195
5016.894531 -11419.210938 68304.273438 121 237 191
5121.461914 -11416.898438 68290.445312 125 241 195
5226.457031 -11415.615234 68282.765625 126 243 197
5331.348633 -11414.160156 68274.062500 125 245 198
5435.598145 -11411.414062 68257.632812 125 246 198
5540.000977 -11409.087891 68243.726562 123 245 198
5643.532227 -11405.086914 68219.789062 125 248 203
5747.298340 -11401.699219 68199.531250 130 252 209
5850.875488 -11398.066406 68177.796875 133 254 213
5953.929688 -11393.560547 68150.843750 139 254 217
6057.721680 -11390.597656 68133.125000 144 254 221
6160.805664 -11386.428711 68108.187500 149 255 225
6264.257812 -11383.069336 68088.093750 151 254 227
6368.072754 -11380.468750 68072.531250 157 254 232
6471.946289 -11378.055664 68058.101562 165 255 235
6576.735352 -11377.303711 68053.609375 174 255 236
6681.584473 -11376.677734 68049.859375 179 255 238
6786.550293 -11376.265625 68047.398438 180 255 239
6891.945801 -11376.577148 68049.257812 180 255 237
6997.684082 -11377.435547 68054.398438 178 255 240
7103.599121 -11378.552734 68061.070312 179 255 242
7210.090332 -11380.544922 68072.992188 176 255 243
7316.342285 -11382.109375 68082.351562 170 254 242
7422.903320 -11384.102539 68094.273438 163 251 242
7530.017578 -11386.876953 68110.867188 161 253 243
7636.725586 -11388.968750 68123.375000 159 254 244
7744.593262 -11392.708984 68145.750000 155 255 245
7852.188965 -11395.955078 68165.171875 153 255 244
7960.023926 -11399.458008 68186.117188 150 255 242
8068.393066 -11403.623047 68211.039062 148 254 241
8175.733887 -11406.248047 68226.734375 146 254 240
8284.558594 -11410.848633 68254.250000 145 254 238
8393.120117 -11414.974609 68278.929688 144 254 237
8501.717773 -11419.047852 68303.296875 141 253 235
8610.712891 -11423.547852 68330.218750 142 254 235
8718.272461 -11426.057617 68345.226562 143 255 235
8826.732422 -11429.674805 68366.859375 141 254 232
8934.342773 -11432.117188 68381.468750 141 255 230
9042.140625 -11434.740234 68397.164062 141 255 229
9151.388672 -11439.115234 68423.328125 142 255 228
9260.011719 -11442.618164 68444.281250 138 255 225
9369.044922 -11446.541992 68467.757812 137 255 223
9476.010742 -11447.881836 68475.773438 136 255 221
9583.496094 -11449.812500 68487.320312 134 252 219
9693.423828 -11454.586914 68515.875000 134 255 219
9803.252930 -11459.142578 68543.125000 128 248 211
9917.287109 -11468.463867 68598.882812 130 251 213
10031.058594 -11477.288086 68651.664062 127 247 212
10145.940430 -11487.183594 68710.851562 127 245 213
10262.151367 -11498.363281 68777.726562 127 244 215
10374.654297 -11505.202148 68818.632812 128 243 212
10492.500977 -11517.767578 68893.796875 127 239 210
10609.000977 -11528.617188 68958.687500 125 237 205
10726.908203 -11540.764648 69031.351562 127 237 205
10847.928711 -11555.990234 69122.421875 130 238 208
10964.421875 -11566.142578 69183.148438 130 236 205
11089.529297 -11585.097656 69296.523438 127 230 200
11210.307617 -11599.209961 69380.945312 128 231 201
11337.224609 -11619.346680 69501.390625 128 229 199
11474.984375 -11650.114258 69685.421875 129 228 197
11607.485352 -11675.019531 69834.398438 132 228 198
11770.129883 -11729.504883 70160.304688 134 227 199
11921.746094 -11772.106445 70415.125000 130 222 193
12099.717773 -11839.724609 70819.585938 133 222 193
12144.294922 -11776.773438 70443.039062 140 230 201
12113.602539 -11642.597656 69640.468750 111 199 171
13146.981445 -12524.474609 74915.429688 104 185 160
15060.359375 -14221.958008 85068.968750 117 183 160
18644.167969 -17453.832031 104400.492188 78 130 110
1167.618042 -16664.099609 100607.101562 76 141 119
984.276855 -12396.098633 74839.664062 104 178 151
1034.288940 -11655.741211 70369.867188 60 134 107
1164.758301 -11876.718750 71703.984375 63 139 107
1252.618652 -11662.574219 70411.117188 76 154 122
1361.330444 -11661.290039 70403.359375 72 153 121
1467.887329 -11643.103516 70293.562500 75 162 129
1572.573364 -11613.607422 70115.484375 74 165 133
1678.791748 -11598.502930 70024.296875 76 169 138
1783.181763 -11573.362305 69872.507812 81 176 146
1889.061890 -11560.211914 69793.117188 85 184 155
1993.116089 -11537.913086 69658.492188 82 185 155
2097.289307 -11518.553711 69541.609375 88 192 162
2201.201416 -11499.719727 69427.898438 82 190 160
2304.084717 -11477.510742 69293.820312 85 194 164
2408.447021 -11464.316406 69214.156250 83 196 162
2511.455322 -11446.073242 69104.015625 88 202 165
2615.196289 -11432.521484 69022.203125 88 202 165
2719.196289 -11421.120117 68953.375000 96 209 172
2822.397461 -11407.351562 68870.242188 96 209 170
2926.922119 -11399.737305 68824.273438 100 213 173
3030.975586 -11390.887695 68770.851562 102 214 175
3136.083984 -11386.467773 68744.164062 98 213 172
3241.236572 -11382.493164 68720.164062 102 218 179
3344.919922 -11373.775391 68667.531250 100 216 178
3448.809082 -11366.270508 68622.226562 104 220 180
3552.469482 -11358.484375 68575.210938 108 223 184
3657.391846 -11355.065430 68554.578125 101 220 180
3762.655029 -11352.869141 68541.312500 104 223 183
3867.123535 -11348.459961 68514.695312 108 226 186
3971.933838 -11345.262695 68495.390625 113 231 191
4076.160645 -11340.608398 68467.289062 116 235 194
4180.742188 -11337.151367 68446.421875 115 234 194
4285.298828 -11333.798828 68426.179688 117 236 195
4389.404297 -11329.443359 68399.882812 118 236 196
4494.038574 -11326.625977 68382.875000 114 233 195
4598.068359 -11322.449219 68357.656250 113 232 194
4702.372070 -11319.120117 68337.562500 113 231 193
4806.765137 -11316.147461 68319.609375 117 235 194
4910.928711 -11312.773438 68299.242188 121 237 195
5015.722656 -11310.963867 68288.312500 121 237 195
5120.229980 -11308.594727 68274.015625 126 243 201
5225.166992 -11307.251953 68265.906250 128 244 204
5330.004395 -11305.750977 68256.843750 128 245 205
5434.201172 -11302.975586 68240.085938 128 247 208
5538.567871 -11300.653320 68226.070312 128 247 212
5642.078613 -11296.703125 68202.218750 131 250 217
5745.839844 -11293.390625 68182.218750 134 252 220
5849.420898 -11289.849609 68160.843750 138 254 228
5952.470703 -11285.427734 68134.148438 142 254 231
6056.247559 -11282.512695 68116.546875 144 255 235
6159.297852 -11278.367188 68091.515625 147 255 238
6262.708008 -11275.008789 68071.250000 150 255 240
6366.455078 -11272.358398 68055.242188 153 255 245
6470.237305 -11269.855469 68040.132812 159 254 247
6574.939941 -11269.009766 68035.023438 168 255 248
6679.656250 -11268.213867 68030.218750 173 255 248
6784.507324 -11267.666016 68026.914062 175 255 249
6889.768555 -11267.805664 68027.757812 174 255 250
6995.322754 -11268.414062 68031.429688 176 255 252
7101.081055 -11269.328125 68036.945312 176 255 253
7207.369141 -11271.043945 68047.304688 174 255 254
7313.457031 -11272.400391 68055.500000 169 254 252
7419.867188 -11274.209961 68066.421875 163 251 250
7526.808105 -11276.763672 68081.835938 160 254 251
7633.401367 -11278.732422 68093.726562 157 255 251
7741.127441 -11282.299805 68115.257812 153 255 249
7848.598145 -11285.403320 68134.000000 151 255 249
7956.334473 -11288.801758 68154.515625 148 254 245
8064.621582 -11292.882812 68179.156250 147 254 243
8171.923340 -11295.495117 68194.929688 147 255 242
8280.714844 -11300.076172 68222.585938 148 255 239
8389.255859 -11304.202148 68247.500000 145 254 234
8497.819336 -11308.257812 68271.984375 143 254 233
8606.741211 -11312.683594 68298.703125 146 255 235
8714.207031 -11315.112305 68313.359375 144 255 232
8822.555664 -11318.615234 68334.507812 142 255 228
8930.077148 -11320.986328 68348.828125 142 255 227
9037.779297 -11323.527344 68364.171875 141 255 224
9146.881836 -11327.746094 68389.632812 142 255 225
9255.365234 -11331.109375 68409.945312 138 253 221
9364.270508 -11334.906250 68432.867188 132 250 215
9471.128906 -11336.168945 68440.492188 134 254 218
9578.581055 -11338.107422 68452.195312 120 241 204
9688.579102 -11342.983398 68481.632812 135 254 218
9798.515625 -11347.682617 68510.000000 126 246 208
9912.731445 -11357.184570 68567.367188 134 255 217
10026.590820 -11366.081055 68621.078125 130 250 214
10141.607422 -11376.089844 68681.507812 131 250 218
10258.090820 -11387.518555 68750.507812 128 247 217
10370.826172 -11394.596680 68793.234375 128 244 215
10489.140625 -11407.596680 68871.726562 125 243 211
10606.128906 -11418.908203 68940.015625 131 244 214
10724.469727 -11431.437500 69015.656250 134 247 215
10845.911133 -11446.991211 69109.562500 136 247 217
10962.576172 -11457.250000 69171.500000 134 243 214
11087.353516 -11475.706055 69282.929688 127 235 205
11207.558594 -11489.123047 69363.929688 126 230 201
11333.446289 -11508.055664 69478.226562 128 231 201
11469.848633 -11537.208008 69654.234375 130 232 201
11601.229492 -11560.815430 69796.757812 132 231 202
11761.680664 -11612.689453 70109.937500 131 226 199
11910.788086 -11652.517578 70350.398438 126 220 191
12086.620117 -11717.534180 70742.921875 135 228 201
12157.647461 -11680.690430 70520.492188 142 234 205
12163.352539 -11582.300781 69926.476562 105 194 166
13074.132812 -12339.891602 74500.320312 105 188 162
14552.701172 -13615.469727 82201.437500 109 180 156
17423.623047 -16160.367188 97565.890625 94 149 128
1152.701294 -16297.649414 99321.812500 75 139 117
977.469543 -12195.457031 74322.062500 97 170 143
1030.629395 -11506.088867 70120.882812 75 149 122
1163.857788 -11756.761719 71648.546875 73 150 118
1253.536011 -11562.173828 70462.679688 71 148 115
1361.970947 -11557.875977 70436.484375 67 149 114
1468.302856 -11537.688477 70313.460938 66 152 117
1573.067139 -11508.815430 70137.500000 74 164 129
1679.265137 -11493.479492 70044.039062 82 173 140
1783.645874 -11468.317383 69890.695312 88 182 148
1889.497314 -11454.945312 69809.203125 92 189 156
1993.381470 -11431.736328 69667.765625 85 186 152
2097.301514 -11411.103516 69542.023438 94 198 164
2200.945801 -11391.054688 69419.835938 100 204 170
2303.638184 -11368.171875 69280.390625 98 205 171
2407.965576 -11355.035156 69200.328125 98 207 172
2510.905762 -11336.750000 69088.890625 100 210 172
2614.569092 -11323.090820 69005.648438 99 211 172
2718.484863 -11311.552734 68935.335938 97 208 170
2821.567383 -11297.548828 68849.992188 96 207 168
2925.990967 -11289.737305 68802.382812 99 211 171
3029.916260 -11280.618164 68746.812500 105 216 175
3134.906982 -11275.950195 68718.359375 110 224 184
3239.969482 -11271.837891 68693.304688 108 223 184
3343.598877 -11263.159180 68640.414062 105 221 182
3447.482178 -11255.842773 68595.828125 104 219 181
3551.125977 -11248.205078 68549.273438 103 222 182
3656.001709 -11244.799805 68528.523438 106 226 186
3761.209229 -11242.576172 68514.976562 106 225 185
3865.626221 -11238.177734 68488.171875 108 227 187
3970.389648 -11234.993164 68468.765625 114 234 195
4074.574707 -11230.380859 68440.648438 117 237 198
4179.127441 -11226.988281 68419.976562 119 239 200
4283.649414 -11223.684570 68399.843750 121 242 203
4387.704590 -11219.344727 68373.398438 119 239 202
4492.281250 -11216.512695 68356.132812 118 238 203
4596.228516 -11212.274414 68330.312500 120 241 205
4700.446289 -11208.872070 68309.570312 120 241 205
4804.749512 -11205.817383 68290.960938 124 244 209
4908.821777 -11202.368164 68269.937500 127 246 215
5013.546387 -11200.522461 68258.687500 130 248 220
5117.975098 -11198.103516 68243.945312 136 253 225
5222.834961 -11196.707031 68235.437500 133 250 223
5327.610840 -11195.190430 68226.195312 134 249 222
5431.761719 -11192.444336 68209.460938 138 253 227
5536.099609 -11190.179688 68195.664062 139 255 231
5639.610840 -11186.362305 68172.390625 139 255 231
5743.377441 -11183.180664 68153.000000 138 253 233
5846.974609 -11179.790039 68132.343750 143 255 239
5950.056641 -11175.550781 68106.507812 144 255 242
6053.842773 -11172.760742 68089.500000 145 255 242
6156.897949 -11168.738281 68064.984375 148 255 246
6260.290039 -11165.452148 68044.960938 150 255 246
6363.988770 -11162.813477 68028.882812 152 255 249
6467.703125 -11160.286133 68013.484375 158 254 250
6572.323242 -11159.378906 68007.953125 165 254 249
6676.923828 -11158.466797 68002.390625 172 254 250
6781.677734 -11157.834961 67998.539062 175 254 251
6886.818359 -11157.849609 67998.632812 177 255 251
6992.201660 -11158.250977 68001.078125 180 255 253
7097.806152 -11158.987305 68005.562500 179 255 252
7203.900879 -11160.462891 68014.562500 177 254 250
7309.832520 -11161.647461 68021.773438 173 254 247
7416.106445 -11163.311523 68031.921875 166 252 245
7522.897461 -11165.698242 68046.460938 163 254 245
7629.390625 -11167.583008 68057.945312 161 255 246
7737.002441 -11171.031250 68078.960938 156 255 244
7844.359863 -11174.024414 68097.203125 151 254 241
7952.014160 -11177.356445 68117.507812 147 254 237
8060.261230 -11181.422852 68142.289062 147 254 235
8167.556152 -11184.080078 68158.484375 146 254 234
8276.366211 -11188.718750 68186.757812 144 254 229
8384.911133 -11192.887695 68212.156250 142 254 226
8493.477539 -11196.978516 68237.093750 143 255 227
8602.412109 -11201.451172 68264.351562 143 255 228
8709.862305 -11203.905273 68279.304688 143 255 227
8818.198242 -11207.424805 68300.757812 141 255 224
8925.694336 -11209.808594 68315.281250 140 255 223
9033.344727 -11212.326172 68330.625000 138 254 221
9142.363281 -11216.465820 68355.851562 138 253 222
9250.743164 -11219.734375 68375.773438 141 255 225
9359.583984 -11223.482422 68398.617188 138 255 222
9466.427734 -11224.780273 68406.523438 136 254 220
9573.902344 -11226.788086 68418.757812 134 253 219
9683.921875 -11231.704102 68448.718750 135 255 222
9793.861328 -11236.420898 68477.460938 137 255 222
9908.179688 -11246.007812 68535.882812 134 253 222
10022.135742 -11254.983398 68590.585938 131 253 220
10137.320312 -11265.137695 68652.476562 129 251 221
10254.077148 -11276.811523 68723.609375 125 249 219
10367.030273 -11284.104492 68768.054688 125 245 217
10485.758789 -11297.471680 68849.523438 128 248 217
10603.140625 -11309.134766 68920.593750 128 246 216
10721.850586 -11321.966797 68998.804688 128 246 215
10843.718750 -11337.849609 69095.593750 128 243 213
10960.619141 -11348.279297 69159.156250 125 238 209
11085.221680 -11366.402344 69269.601562 124 235 206
11204.735352 -11379.013672 69346.453125 121 230 200
11329.943359 -11397.112305 69456.757812 119 226 196
11466.809570 -11426.489258 69635.781250 120 225 195
11599.333984 -11451.032227 69785.351562 123 226 196
11757.974609 -11500.667969 70087.851562 124 224 196
11903.200195 -11536.395508 70305.585938 124 219 192
12073.378906 -11595.442383 70665.429688 127 222 193
12172.042969 -11585.361328 70603.992188 135 228 199
12218.420898 -11526.136719 70243.062500 113 203 175
12970.379883 -12127.695312 73909.101562 105 188 162
13949.842773 -12929.611328 78796.171875 122 196 171
16084.495117 -14779.077148 90067.265625 97 157 135
1146.133545 -16052.105469 98755.906250 70 134 113
974.919983 -12049.039062 74128.210938 101 174 148
1029.425537 -11384.361328 70038.968750 86 161 134
1163.710571 -11644.513672 71639.484375 78 155 124
1254.172363 -11459.046875 70498.453125 94 171 140
1362.537354 -11453.735352 70465.773438 92 175 140
1468.804565 -11432.882812 70337.492188 88 175 140
1573.636963 -11404.505859 70162.906250 83 173 137
1679.796631 -11388.789062 70066.210938 77 170 136
1783.987915 -11362.438477 69904.093750 89 184 149
1889.579102 -11347.505859 69812.226562 100 196 163
1993.247559 -11323.263672 69663.085938 89 189 156
2097.164062 -11302.844727 69537.460938 92 196 161
2200.870117 -11283.336914 69417.445312 93 199 163
2303.507080 -11260.417969 69276.445312 98 206 173
2407.744141 -11247.010742 69193.960938 102 213 177
2510.563721 -11228.403320 69079.484375 100 211 175
2614.142090 -11214.569336 68994.375000 102 215 178
2717.972168 -11202.859375 68922.335938 96 209 172
2820.936523 -11188.597656 68834.593750 98 211 174
2925.267334 -11180.596680 68785.367188 102 215 179
3029.077637 -11171.237305 68727.789062 109 223 187
3133.964600 -11166.348633 68697.710938 109 226 189
3238.955078 -11162.136719 68671.796875 105 223 185
3342.548096 -11153.528320 68618.835938 107 227 189
3446.441895 -11146.423828 68575.125000 108 228 190
3550.079346 -11138.937500 68529.078125 112 232 194
3654.913574 -11135.532227 68508.125000 115 235 197
3760.066895 -11133.263672 68494.164062 112 234 195
3864.435059 -11128.858398 68467.062500 113 236 197
3969.157471 -11125.680664 68447.515625 115 238 200
4073.302002 -11121.090820 68419.273438 115 238 201
4177.821777 -11117.731445 68398.609375 115 238 202
4282.310547 -11114.457031 68378.460938 117 240 204
4386.324219 -11110.136719 68351.882812 117 241 205
4490.855957 -11107.302734 68334.445312 116 239 204
4594.750977 -11103.059570 68308.343750 115 239 204
4698.917969 -11099.648438 68287.359375 120 244 210
4803.169434 -11096.583984 68268.507812 121 244 211
4907.189941 -11093.127930 68247.242188 119 239 209
5011.871582 -11091.282227 68235.882812 122 241 213
5116.260254 -11088.875977 68221.085938 127 247 218
5221.080566 -11087.484375 68212.523438 126 245 216
5325.832031 -11086.003906 68203.414062 129 247 218
5429.981934 -11083.353516 68187.109375 134 253 223
5534.324707 -11081.190430 68173.796875 137 254 226
5637.871582 -11077.543945 68151.367188 132 253 222
5741.663574 -11074.503906 68132.664062 134 253 227
5845.296387 -11071.272461 68112.781250 136 255 229
5948.439941 -11067.245117 68088.007812 139 255 234
6052.264648 -11064.603516 68071.750000 141 255 232
6155.371094 -11060.759766 68048.109375 146 254 237
6258.787109 -11057.593750 68028.625000 149 254 238
6362.486816 -11055.024414 68012.820312 153 254 240
6466.197266 -11052.557617 67997.640625 158 252 241
6570.785156 -11051.645508 67992.031250 165 253 243
6675.343750 -11050.713867 67986.304688 171 255 246
6780.063965 -11050.072266 67982.359375 176 255 249
6885.155762 -11050.048828 67982.210938 179 255 248
6990.460938 -11050.363281 67984.148438 181 255 247
7095.987305 -11051.012695 67988.140625 180 255 247
7201.986328 -11052.368164 67996.484375 178 254 245
7307.842773 -11053.469727 68003.257812 175 254 244
7414.046387 -11055.056641 68013.023438 169 254 243
7520.767578 -11057.361328 68027.195312 165 255 243
7627.215820 -11059.206055 68038.546875 161 255 244
7734.776367 -11062.590820 68059.375000 156 255 242
7842.079102 -11065.522461 68077.406250 151 254 240
7949.699707 -11068.817383 68097.679688 148 254 237
8057.942383 -11072.881836 68122.687500 147 254 236
8165.253418 -11075.578125 68139.273438 146 253 235
8274.101562 -11080.263672 68168.093750 143 253 233
8382.659180 -11084.447266 68193.835938 142 254 233
8491.251953 -11088.572266 68219.210938 142 255 234
8600.248047 -11093.117188 68247.171875 143 255 234
8707.746094 -11095.642578 68262.710938 143 255 233
8816.138672 -11099.233398 68284.804688 142 255 233
8923.665039 -11101.662109 68299.742188 141 255 230
9031.319336 -11104.191406 68315.304688 141 255 230
9140.327148 -11108.306641 68340.625000 140 254 230
9248.666016 -11111.524414 68360.421875 139 253 227
9357.507812 -11115.267578 68383.445312 138 255 229
9464.394531 -11116.629883 68391.828125 134 251 224
9571.905273 -11118.686523 68404.484375 137 254 228
9681.889648 -11123.541016 68434.351562 135 253 227
9791.741211 -11128.139648 68462.640625 137 255 227
9906.041016 -11137.640625 68521.093750 133 252 225
10020.041016 -11146.606445 68576.257812 129 251 224
10135.332031 -11156.806641 68639.007812 127 250 221
10252.238281 -11168.555664 68711.289062 126 252 221
10365.313477 -11175.931641 68756.664062 124 248 218
10484.256836 -11189.421875 68839.664062 129 251 220
10601.817383 -11201.179688 68912.000000 125 244 214
10720.723633 -11214.110352 68991.554688 121 240 208
10842.924805 -11230.199219 69090.539062 122 238 207
10960.104492 -11240.824219 69155.898438 122 236 206
11084.669922 -11258.746094 69266.164062 122 234 203
11203.363281 -11270.417969 69337.968750 121 232 199
11328.285156 -11288.073242 69446.585938 119 227 196
11467.273438 -11319.283203 69638.593750 119 225 194
11602.954102 -11346.677734 69807.132812 122 224 193
11761.425781 -11395.650391 70108.421875 124 224 193
11902.713867 -11427.229492 70302.703125 125 221 191
12067.195312 -11480.303711 70629.234375 129 223 192
12183.230469 -11486.750000 70668.882812 137 228 198
12256.816406 -11453.414062 70463.796875 115 204 177
12906.541016 -11954.296875 73545.335938 109 193 167
13590.195312 -12477.582031 76764.695312 121 195 170
15323.495117 -13947.176758 85805.945312 118 178 156
1136.286865 -15762.824219 97907.468750 70 136 116
971.210632 -11889.022461 73846.164062 102 177 151
1027.686646 -11257.027344 69920.664062 78 155 127
1163.448120 -11531.152344 71623.328125 89 170 138
1255.023071 -11357.748047 70546.265625 100 181 148
1363.246704 -11350.695312 70502.460938 92 177 144
1469.373657 -11328.522461 70364.742188 87 177 144
1574.253174 -11300.451172 70190.382812 89 183 152
1680.342163 -11284.123047 70088.960938 88 184 153
1784.329224 -11256.513672 69917.468750 87 186 154
1889.666016 -11240.085938 69815.437500 89 189 158
1993.110352 -11214.786133 69658.289062 82 186 153
2096.999268 -11194.453125 69531.992188 92 199 166
2200.739746 -11175.349609 69413.335938 95 205 170
2303.300537 -11152.311523 69270.242188 94 205 172
2407.438721 -11138.617188 69185.179688 95 209 174
2510.125732 -11119.660156 69067.429688 95 210 174
2613.608643 -11105.631836 68980.296875 100 215 179
2717.339844 -11093.717773 68906.296875 102 216 181
2820.161865 -11079.130859 68815.695312 102 216 181
2924.376953 -11070.877930 68764.429688 103 217 184
3028.032471 -11061.160156 68704.070312 106 222 188
3132.772217 -11055.927734 68671.570312 102 220 185
3237.649414 -11051.506836 68644.109375 109 228 191
3341.182129 -11042.923828 68590.796875 111 231 193
3445.086182 -11036.057617 68548.148438 110 230 192
3548.694824 -11028.683594 68502.351562 114 233 195
3653.445557 -11025.182617 68480.609375 110 231 192
3758.493896 -11022.752930 68465.515625 111 232 194
3862.767334 -11018.245117 68437.515625 113 235 199
3967.417969 -11015.025391 68417.515625 117 239 202
4071.485107 -11010.394531 68388.750000 120 242 204
4175.939941 -11007.020508 68367.796875 115 237 200
4280.365234 -11003.736328 68347.398438 122 243 208
4384.301270 -10999.384766 68320.367188 118 242 205
4488.761719 -10996.521484 68302.585938 116 239 202
4592.566895 -10992.220703 68275.875000 123 246 210
4696.645996 -10988.754883 68254.343750 122 244 209
4800.809570 -10985.634766 68234.960938 121 243 206
4904.733398 -10982.112305 68213.078125 119 243 207
5009.336426 -10980.225586 68201.367188 124 248 211
5113.638672 -10977.772461 68186.125000 124 246 209
5218.375977 -10976.333008 68177.187500 123 245 207
5323.063965 -10974.848633 68167.968750 128 249 211
5427.169922 -10972.245117 68151.796875 126 249 210
5531.486328 -10970.158203 68138.835938 129 251 214
5635.043945 -10966.672852 68117.187500 125 249 213
5738.845215 -10963.781250 68099.226562 130 254 221
5842.502441 -10960.722656 68080.226562 133 255 225
5945.694336 -10956.915039 68056.578125 136 255 228
6049.543457 -10954.430664 68041.140625 137 254 229
6152.686523 -10950.773438 68018.429688 142 252 232
6256.116699 -10947.742188 67999.601562 147 253 236
6359.804199 -10945.253906 67984.148438 152 254 239
6463.488770 -10942.841797 67969.164062 159 253 242
6568.020508 -10941.917969 67963.429688 165 253 245
6672.510254 -10940.954102 67957.437500 170 254 247
6777.167969 -10940.291992 67953.328125 175 255 250
6882.176758 -10940.207031 67952.796875 178 255 250
6987.367188 -10940.410156 67954.054688 181 255 251
7092.782227 -10940.953125 67957.429688 182 255 251
7198.639160 -10942.152344 67964.875000 180 255 252
7304.373047 -10943.131836 67970.968750 177 255 252
7410.463867 -10944.611328 67980.156250 173 255 252
7517.064941 -10946.792969 67993.710938 167 255 252
7623.431152 -10948.577148 68004.789062 161 255 251
7730.889160 -10951.858398 68025.171875 155 255 249
7838.080078 -10954.678711 68042.687500 150 255 246
7945.614746 -10957.899414 68062.687500 149 255 246
8053.806641 -10961.929688 68087.726562 149 255 246
8161.104980 -10964.655273 68104.648438 147 255 244
8269.963867 -10969.380859 68134.007812 144 255 243
8378.515625 -10973.586914 68160.132812 144 255 243
8487.114258 -10977.747070 68185.976562 143 255 241
8596.148438 -10982.363281 68214.640625 144 254 241
8703.667969 -10984.955078 68230.742188 143 254 240
8812.112305 -10988.638672 68253.617188 142 254 238
8919.670898 -10991.142578 68269.171875 141 254 237
9027.334961 -10993.717773 68285.171875 140 253 233
9136.319336 -10997.822266 68310.656250 140 254 232
9244.586914 -11000.979492 68330.273438 142 255 234
9353.424805 -11004.736328 68353.609375 143 255 232
9460.371094 -11006.208984 68362.757812 143 255 232
9567.953125 -11008.380859 68376.242188 140 255 230
9677.955078 -11013.257812 68406.539062 142 255 231
9787.759766 -11017.807617 68434.796875 138 255 228
9902.083008 -11027.292969 68493.718750 137 255 226
10016.123047 -11036.264648 68549.437500 133 253 223
10131.524414 -11046.534180 68613.226562 131 252 220
10248.649414 -11058.449219 68687.234375 125 248 215
10361.918945 -11066.002930 68734.156250 127 249 215
10481.153320 -11079.708008 68819.281250 127 246 213
10598.921875 -11091.604492 68893.171875 128 246 213
10718.004883 -11104.625977 68974.054688 126 242 210
10840.491211 -11120.882812 69075.031250 125 240 206
10957.873047 -11131.636719 69141.820312 128 243 208
11082.225586 -11149.195312 69250.882812 126 238 205
11200.140625 -11160.003906 69318.015625 126 237 203
11324.410156 -11176.878906 69422.835938 127 236 201
11464.087891 -11208.501953 69619.257812 130 237 203
11601.218750 -11237.069336 69796.695312 130 234 200
11758.457031 -11284.407227 70090.726562 131 230 196
11896.520508 -11312.647461 70266.132812 128 224 190
12055.920898 -11360.480469 70563.242188 133 227 195
12195.688477 -11389.123047 70741.148438 142 232 201
12304.939453 -11389.011719 70740.453125 122 211 183
12817.435547 -11758.841797 73037.578125 121 206 180
13144.866211 -11953.916016 74249.234375 136 211 186
14412.114258 -12992.880859 80702.546875 103 165 140
1128.806152 -15508.672852 97262.898438 70 137 117
968.375610 -11740.478516 73630.601562 95 172 146
1026.337769 -11134.291016 69828.890625 78 158 130
1163.202393 -11418.003906 71608.203125 81 165 133
1255.608765 -11253.927734 70579.187500 76 161 127
1363.704590 -11245.469727 70526.148438 82 171 135
1469.704712 -11222.260742 70380.593750 83 175 145
1574.593018 -11194.347656 70205.539062 88 184 155
1680.630615 -11177.678711 70100.992188 87 184 153
1784.538574 -11149.723633 69925.671875 89 187 156
1889.793579 -11132.897461 69820.148438 94 197 165
1993.153931 -11107.331055 69659.812500 89 194 161
2097.018311 -11087.051758 69532.625000 94 201 167
2200.751465 -11068.089844 69413.710938 91 201 165
2303.267334 -11045.053711 69269.242188 97 208 172
2407.362793 -11031.302734 69183.000000 98 211 174
2509.987061 -11012.267578 69063.617188 97 211 174
2613.424072 -10998.206055 68975.429688 97 210 173
2717.103027 -10986.225586 68900.289062 101 214 176
2819.840820 -10971.486328 68807.859375 107 220 184
2923.983154 -10963.085938 68755.171875 107 220 185
3027.527588 -10953.110352 68692.617188 104 217 181
3132.156982 -10947.604492 68658.085938 107 221 185
3236.941650 -10942.984375 68629.109375 108 226 187
3340.416504 -10934.370117 68575.085938 108 227 187
3444.317871 -10927.638672 68532.867188 107 226 187
3547.885254 -10920.280273 68486.718750 106 225 185
3652.554688 -10916.643555 68463.914062 110 230 189
3757.508057 -10914.035156 68447.554688 110 231 191
3861.693115 -10909.400391 68418.484375 111 232 193
3966.285645 -10906.131836 68397.992188 115 236 197
4070.286377 -10901.450195 68368.625000 117 238 200
4174.686523 -10898.045898 68347.273438 113 234 196
4279.061523 -10894.746094 68326.578125 123 243 207
4382.937012 -10890.365234 68299.101562 118 239 202
4487.343750 -10887.479492 68281.007812 113 234 198
4591.080566 -10883.136719 68253.773438 122 243 207
4695.093262 -10879.630859 68231.781250 118 239 203
4799.188477 -10876.463867 68211.921875 117 240 203
4903.035156 -10872.882812 68189.460938 116 242 204
5007.572754 -10870.952148 68177.359375 115 244 205
5111.798340 -10868.438477 68161.585938 119 242 206
5216.462402 -10866.939453 68152.187500 125 249 213
5321.086914 -10865.417969 68142.648438 128 250 215
5425.134766 -10862.801758 68126.242188 129 250 216
5529.412598 -10860.736328 68113.289062 131 250 218
5632.949707 -10857.321289 68091.867188 132 251 222
5736.738770 -10854.507812 68074.226562 132 252 225
5840.396484 -10851.551758 68055.687500 136 254 230
5943.594238 -10847.861328 68032.539062 139 254 233
6047.435547 -10845.453125 68017.437500 141 254 236
6150.579590 -10841.897461 67995.140625 146 253 240
6254.003418 -10838.947266 67976.632812 150 255 246
6357.669434 -10836.505859 67961.328125 155 255 250
6461.320312 -10834.120117 67946.359375 160 255 253
6565.801758 -10833.180664 67940.468750 164 255 255
6670.228027 -10832.179688 67934.195312 168 255 255
6774.832031 -10831.495117 67929.898438 174 255 255
6879.772461 -10831.361328 67929.062500 177 255 255
6984.875977 -10831.484375 67929.828125 179 254 255
7090.206543 -10831.950195 67932.757812 181 254 255
7195.955078 -10833.032227 67939.539062 178 254 255
7301.590820 -10833.915039 67945.078125 175 254 253
7407.586426 -10835.299805 67953.757812 170 254 253
7514.090820 -10837.378906 67966.804688 163 255 252
7620.386719 -10839.105469 67977.625000 158 255 250
7727.748535 -10842.280273 67997.539062 151 255 247
7834.835938 -10844.989258 68014.531250 147 255 246
7942.281738 -10848.116211 68034.140625 146 254 246
8050.411621 -10852.083008 68059.023438 145 255 244
8157.683105 -10854.806641 68076.093750 145 255 243
8266.536133 -10859.537109 68105.765625 144 254 240
8375.077148 -10863.745117 68132.156250 141 254 238
8483.674805 -10867.919922 68158.335938 140 255 236
8592.724609 -10872.565430 68187.468750 142 254 236
8700.245117 -10875.186523 68203.914062 141 254 234
8808.725586 -10878.929688 68227.390625 142 255 233
8916.327148 -10881.512695 68243.585938 142 255 233
9024.022461 -10884.148438 68260.117188 143 255 230
9133.009766 -10888.262695 68285.914062 143 255 227
9241.229492 -10891.376953 68305.453125 143 255 227
9350.087891 -10895.166992 68329.218750 139 254 224
9457.100586 -10896.745117 68339.117188 141 255 226
9564.771484 -10899.038086 68353.500000 137 252 219
9674.862305 -10904.009766 68384.679688 140 254 222
9784.705078 -10908.595703 68413.437500 137 254 220
9899.115234 -10918.123047 68473.187500 137 254 220
10013.197266 -10927.088867 68529.414062 134 253 217
10128.679688 -10937.379883 68593.960938 133 253 217
10246.003906 -10949.425781 68669.507812 127 247 211
10359.464844 -10957.137695 68717.875000 127 248 211
10478.922852 -10970.973633 68804.640625 127 245 210
10596.840820 -10982.933594 68879.648438 128 246 211
10715.997070 -10995.925781 68961.132812 127 244 210
10838.566406 -11012.131836 69062.765625 128 244 210
10955.955078 -11022.807617 69129.718750 129 245 209
11080.016602 -11039.926758 69237.085938 130 245 209
11197.625977 -11050.350586 69302.460938 129 243 208
11321.204102 -11066.411133 69403.179688 129 241 205
11459.596680 -11096.514648 69591.976562 133 243 208
11595.460938 -11123.633789 69762.054688 134 240 204
11751.052734 -11169.002930 70046.585938 133 235 201
11888.379883 -11196.342773 70218.046875 130 228 193
12046.521484 -11242.612305 70508.234375 132 228 196
12206.157227 -11289.434570 70801.875000 136 228 198
12343.489258 -11314.978516 70962.070312 126 214 188
12752.766602 -11587.162109 72669.078125 137 221 195
12829.799805 -11555.350586 72469.570312 136 211 187
13791.617188 -12314.085938 77227.992188 105 168 142
17829.257812 -15782.525391 98980.367188 79 125 104
1121.758423 -15262.406250 96655.632812 78 145 127
965.955383 -11597.581055 73446.585938 81 161 136
1025.261841 -11014.770508 69755.687500 79 162 134
1163.008911 -11305.411133 71596.289062 77 163 132
1256.126343 -11149.400391 70608.289062 80 168 135
1364.082886 -11139.518555 70545.710938 90 180 146
1469.930542 -11115.153320 70391.406250 92 184 153
1574.788086 -11087.176758 70214.234375 88 183 152
1680.748413 -11070.072266 70105.906250 93 189 157
1784.567261 -11041.790039 69926.796875 91 190 156
1889.752563 -11024.709961 69818.632812 93 194 160
1993.036621 -10998.984375 69655.710938 93 196 162
2096.863281 -10978.736328 69527.484375 97 203 166
2200.572998 -10959.880859 69408.078125 94 202 162
2303.038574 -10936.870117 69262.351562 94 204 166
2407.092285 -10923.112305 69175.226562 99 210 172
2509.661133 -10904.073242 69054.648438 105 216 178
2613.058594 -10890.041016 68965.789062 102 214 175
2716.692871 -10878.057617 68889.890625 101 212 174
2819.360596 -10863.252930 68796.140625 107 219 181
2923.439209 -10854.764648 68742.382812 108 218 183
3026.886963 -10844.611328 68678.085938 108 219 185
3131.415039 -10838.885742 68641.820312 114 228 189
3236.113281 -10834.104492 68611.546875 113 229 188
3339.541016 -10825.508789 68557.109375 110 226 187
3443.447754 -10818.946289 68515.546875 110 226 186
3546.976562 -10811.625000 68469.179688 108 226 187
3651.560547 -10807.849609 68445.273438 111 230 192
3756.408936 -10805.048828 68427.531250 114 233 196
3860.496582 -10800.271484 68397.281250 114 234 196
3965.023193 -10796.945312 68376.218750 118 237 201
4068.942383 -10792.180664 68346.046875 114 234 200
4173.270996 -10788.715820 68324.101562 113 233 199
4277.578125 -10785.368164 68302.898438 120 240 206
4381.375000 -10780.924805 68274.765625 119 239 206
4485.719238 -10778.006836 68256.289062 116 238 205
4589.373047 -10773.602539 68228.390625 122 243 211
4693.307617 -10770.040039 68205.828125 123 243 214
4797.318848 -10766.806641 68185.351562 125 250 219
4901.069824 -10763.139648 68162.125000 122 253 221
5005.526855 -10761.145508 68149.500000 118 251 219
5109.655762 -10758.542969 68133.015625 118 247 217
5214.229980 -10756.963867 68123.015625 128 252 224
5318.773926 -10755.386719 68113.031250 128 247 221
5422.742676 -10752.729492 68096.203125 134 250 226
5526.963867 -10750.664062 68083.125000 142 253 233
5630.462402 -10747.296875 68061.804688 143 254 234
5734.227051 -10744.552734 68044.421875 143 251 236
5837.874023 -10741.690430 68026.296875 146 253 241
5941.063965 -10738.103516 68003.578125 149 254 246
6044.886230 -10735.763672 67988.765625 149 255 248
6148.021973 -10732.306641 67966.867188 150 255 249
6251.434570 -10729.440430 67948.710938 150 254 250
6355.079102 -10727.059570 67933.640625 151 254 251
6458.698730 -10724.715820 67918.796875 154 253 252
6563.132324 -10723.776367 67912.843750 160 252 251
6667.499023 -10722.758789 67906.398438 165 253 249
6772.046875 -10722.059570 67901.968750 171 254 251
6876.918457 -10721.887695 67900.882812 174 254 251
6981.942383 -10721.953125 67901.296875 176 254 249
7087.196777 -10722.366211 67903.914062 177 253 248
7192.845215 -10723.354492 67910.171875 175 253 247
7298.384277 -10724.154297 67915.242188 172 254 246
7404.284180 -10725.454102 67923.468750 168 254 245
7510.687500 -10727.435547 67936.023438 161 255 245
7616.905762 -10729.102539 67946.578125 157 255 245
7724.160156 -10732.164062 67965.960938 153 255 243
7831.134766 -10734.758789 67982.398438 149 255 243
7938.474121 -10737.778320 68001.523438 147 255 241
8046.516113 -10741.658203 68026.085938 146 255 240
8153.734863 -10744.351562 68043.148438 148 255 239
8262.539062 -10749.040039 68072.843750 145 255 237
8371.035156 -10753.213867 68099.265625 142 255 232
8479.593750 -10757.364258 68125.554688 140 255 231
8588.605469 -10761.979492 68154.781250 140 255 230
8696.081055 -10764.583008 68171.273438 138 255 227
8804.548828 -10768.335938 68195.039062 141 254 227
8912.154297 -10770.958008 68211.640625 140 254 226
9019.850586 -10773.628906 68228.554688 141 253 226
9128.799805 -10777.715820 68254.437500 141 253 224
9236.941406 -10780.766602 68273.757812 141 254 223
9345.783203 -10784.556641 68297.765625 140 254 223
9452.824219 -10786.208008 68308.218750 140 254 221
9560.557617 -10788.603516 68323.390625 139 254 221
9670.722656 -10793.660156 68355.414062 139 254 221
9780.601562 -10798.291992 68384.750000 141 255 223
9895.061523 -10807.829102 68445.148438 141 255 223
10009.126953 -10816.737305 68501.562500 139 255 222
10124.620117 -10826.986328 68566.468750 134 254 219
10242.077148 -10839.100586 68643.187500 135 254 219
10355.682617 -10846.932617 68692.789062 130 250 216
10475.288086 -10860.827148 68780.773438 133 253 218
10593.275391 -10872.780273 68856.476562 130 249 214
10712.416992 -10885.667969 68938.093750 124 244 209
10834.958984 -10901.724609 69039.773438 129 249 214
10952.274414 -10912.259766 69106.500000 125 244 209
11076.017578 -10928.933594 69212.093750 127 246 210
11193.520508 -10939.190430 69277.046875 122 239 205
11316.403320 -10954.459961 69373.750000 121 237 202
11452.748047 -10982.352539 69550.382812 124 237 203
11586.293945 -11007.066406 69706.898438 122 232 197
11739.984375 -11050.287109 69980.609375 127 233 200
11877.853516 -11077.961914 70155.875000 129 231 197
12035.759766 -11123.654297 70445.242188 132 229 198
12208.448242 -11182.067383 70815.164062 127 220 192
12363.944336 -11223.833008 71079.664062 126 215 189
12694.692383 -11422.554688 72338.156250 126 209 182
12612.780273 -11249.739258 71243.726562 131 208 181
13362.696289 -11815.428711 74826.195312 118 183 158
16931.992188 -14842.932617 93999.140625 89 136 115
