ply
		format ascii 1.0
		element vertex 38708
		property float x
		property float y
		property float z
		property uchar red
		property uchar green
		property uchar blue
		end_header
9854.907227 9515.055664 47388.746094 121 221 188
9935.875000 9522.436523 47425.507812 78 176 146
10012.517578 9525.593750 47441.230469 79 175 147
10084.029297 9523.859375 47432.589844 94 187 161
10175.075195 9540.465820 47515.296875 93 184 160
10267.892578 9558.483398 47605.031250 96 183 161
10383.286133 9597.110352 47797.414062 87 170 149
10370.217773 9517.295898 47399.902344 104 180 162
10299.900391 9386.429688 46748.140625 135 200 183
11150.540039 10090.818359 50256.273438 117 167 152
2641.252686 9734.987305 48113.613281 58 135 101
2698.132812 9672.225586 47803.421875 58 138 102
2763.606934 9642.797852 47657.980469 59 137 102
2826.687012 9606.760742 47479.875000 64 141 109
2893.165039 9583.805664 47366.417969 68 150 119
2961.284424 9567.285156 47284.773438 65 152 123
3026.845703 9543.496094 47167.199219 84 177 150
3095.169922 9529.333008 47097.199219 104 203 175
3162.144775 9511.760742 47010.351562 112 212 183
3230.882812 9500.164062 46953.035156 117 216 187
3300.510010 9491.633789 46910.875000 112 218 187
3369.205811 9480.849609 46857.574219 108 221 186
3439.607910 9475.218750 46829.746094 107 222 183
3509.488770 9468.414062 46796.117188 103 219 180
3580.206055 9464.095703 46774.777344 110 224 188
3651.369385 9461.104492 46759.992188 112 223 190
3722.083008 9457.086914 46740.132812 107 220 184
3793.489502 9454.949219 46729.566406 105 222 181
3864.526367 9451.986328 46714.925781 100 219 181
3935.865967 9449.859375 46704.414062 105 223 188
4007.273193 9447.969727 46695.070312 126 228 197
4078.406738 9445.511719 46682.925781 143 226 198
4149.918457 9444.000977 46675.457031 150 226 201
4220.899902 9441.354492 46662.382812 152 229 204
4291.872070 9438.777344 46649.644531 152 229 204
4362.962402 9436.540039 46638.585938 145 221 197
4434.146973 9434.577148 46628.882812 148 222 198
4505.924805 9433.918945 46625.628906 151 224 198
4577.879395 9433.644531 46624.273438 149 225 197
4649.978027 9433.672852 46624.410156 146 228 197
4722.449707 9434.444336 46628.226562 138 225 191
4795.192383 9435.725586 46634.558594 139 229 197
4867.962891 9437.023438 46640.972656 135 226 193
4941.397949 9439.552734 46653.472656 136 227 196
5014.837891 9442.017578 46665.656250 137 229 201
5088.329102 9444.509766 46677.972656 140 231 203
5161.860840 9447.003906 46690.304688 137 229 200
5234.745605 9448.263672 46696.523438 132 225 199
5307.821289 9449.828125 46704.261719 135 228 203
5380.530273 9450.706055 46708.597656 140 230 207
5453.220703 9451.529297 46712.667969 139 226 207
5526.269043 9452.943359 46719.656250 133 223 205
5599.141113 9454.023438 46724.992188 127 218 200
5672.652832 9456.141602 46735.460938 136 226 206
5746.085449 9458.076172 46745.027344 134 224 202
5819.684570 9460.233398 46755.687500 130 219 198
5893.590332 9462.831055 46768.523438 133 220 200
5966.964355 9464.521484 46776.878906 133 220 199
6040.915527 9467.076172 46789.503906 138 224 205
6114.532715 9469.052734 46799.273438 136 225 204
6188.142090 9470.970703 46808.753906 134 224 203
6262.147949 9473.445312 46820.984375 136 224 202
6335.608887 9475.048828 46828.906250 137 225 202
6409.295898 9476.949219 46838.300781 132 225 202
6482.379883 9477.924805 46843.125000 126 224 202
6555.439453 9478.844727 46847.671875 130 224 206
6629.093262 9480.594727 46856.316406 135 225 209
6702.543457 9482.017578 46863.351562 136 225 207
6776.512695 9484.137695 46873.828125 137 225 206
6850.090332 9485.669922 46881.398438 137 230 208
6923.755371 9487.290039 46889.406250 132 227 205
6997.844727 9489.452148 46900.093750 127 225 202
7071.460938 9490.934570 46907.417969 131 229 207
7145.962402 9493.562500 46920.410156 134 229 210
7220.199707 9495.791016 46931.421875 139 232 212
7294.643066 9498.243164 46943.539062 138 229 209
7369.708008 9501.448242 46959.386719 141 231 210
7444.053711 9503.672852 46970.378906 133 225 200
7519.003906 9506.619141 46984.937500 135 228 202
7593.084961 9508.419922 46993.835938 137 231 204
7667.255859 9510.297852 47003.121094 131 226 197
7742.455078 9513.405273 47018.476562 135 228 199
7817.153320 9515.843750 47030.531250 137 226 198
7892.813965 9519.398438 47048.101562 139 228 200
7967.876465 9522.173828 47061.812500 136 231 199
8042.747070 9524.670898 47074.160156 131 232 197
8117.839355 9527.383789 47087.566406 126 228 192
8191.814941 9528.750000 47094.316406 122 226 190
8266.678711 9531.115234 47106.007812 132 236 200
8341.375000 9533.248047 47116.550781 132 236 201
8416.003906 9535.267578 47126.531250 129 229 198
8490.813477 9537.456055 47137.343750 130 226 200
8564.728516 9538.610352 47143.050781 130 225 202
8639.153320 9540.308594 47151.441406 131 226 204
8713.031250 9541.378906 47156.734375 125 222 201
8787.148438 9542.691406 47163.218750 126 228 205
8862.162109 9544.948242 47174.375000 120 227 202
8936.849609 9546.820312 47183.625000 121 230 202
9012.879883 9550.083008 47199.753906 117 228 195
9088.418945 9552.778320 47213.074219 117 228 194
9164.323242 9555.811523 47228.066406 112 224 187
9241.269531 9559.875000 47248.148438 108 222 188
9317.137695 9562.767578 47262.445312 111 226 193
9393.943359 9566.569336 47281.234375 112 228 193
9469.365234 9568.915039 47292.828125 111 227 190
9544.834961 9571.272461 47304.480469 108 224 185
9621.209961 9574.495117 47320.406250 115 226 187
9696.534180 9576.630859 47330.964844 118 224 186
9776.249023 9583.039062 47362.632812 125 227 190
9857.512695 9590.858398 47401.277344 117 215 181
9939.053711 9598.831055 47440.679688 83 180 146
10015.652344 9601.947266 47456.082031 80 176 146
10086.615234 9599.655273 47444.753906 95 188 162
10178.380859 9617.051758 47530.734375 92 183 157
10271.905273 9635.848633 47623.632812 94 180 156
10390.208008 9677.456055 47829.273438 92 174 152
10380.377930 9599.976562 47446.343750 107 181 164
10312.323242 9470.115234 46804.523438 143 204 188
11189.545898 10204.090820 50432.078125 125 174 159
2699.806396 9752.179688 47833.074219 57 135 98
2764.965576 9721.257812 47681.410156 57 134 99
2827.642090 9683.439453 47495.917969 58 137 104
2893.862793 9659.367188 47377.843750 65 145 115
2961.833252 9642.178711 47293.535156 63 147 119
3027.115479 9617.277344 47171.398438 76 168 142
3095.263428 9602.439453 47098.621094 91 189 162
3162.025146 9584.081055 47008.578125 102 201 172
3230.625977 9571.996094 46949.300781 111 212 182
3300.165771 9563.164062 46905.980469 105 211 180
3368.754883 9552.016602 46851.304688 103 216 182
3439.111572 9546.244141 46822.988281 107 223 185
3508.951172 9539.303711 46788.949219 108 225 186
3579.642822 9534.914062 46767.417969 112 226 189
3650.805420 9531.927734 46752.769531 113 225 189
3721.528320 9527.930664 46733.167969 107 220 183
3792.952637 9525.848633 46722.953125 108 224 185
3864.029785 9522.988281 46708.925781 110 229 191
3935.405762 9520.956055 46698.957031 104 223 188
4006.851318 9519.161133 46690.156250 112 223 190
4078.023682 9516.793945 46678.539062 126 225 196
4149.551270 9515.322266 46671.324219 128 223 196
4220.565918 9512.746094 46658.687500 127 223 196
4291.573242 9510.239258 46646.390625 125 222 195
4362.690430 9508.054688 46635.679688 123 220 193
4433.890625 9506.120117 46626.187500 124 221 193
4505.660645 9505.448242 46622.894531 130 225 198
4577.606934 9505.164062 46621.500000 127 225 195
4649.694336 9505.177734 46621.566406 126 227 194
4722.163574 9505.958984 46625.398438 124 226 193
4794.923340 9507.292969 46631.941406 123 227 194
4867.720215 9508.660156 46638.644531 124 232 198
4941.200195 9511.301758 46651.605469 124 232 200
5014.669922 9513.848633 46664.093750 128 235 205
5088.210938 9516.456055 46676.886719 121 229 199
5161.841797 9519.157227 46690.132812 117 226 198
5234.819824 9520.595703 46697.187500 119 228 202
5308.025391 9522.403320 46706.054688 119 227 204
5380.827148 9523.448242 46711.179688 120 226 205
5453.606445 9524.425781 46715.972656 127 231 213
5526.774902 9526.047852 46723.933594 123 228 212
5599.729492 9527.265625 46729.902344 119 223 208
5673.346191 9529.563477 46741.175781 121 224 208
5746.853516 9531.622070 46751.273438 129 230 213
5820.513184 9533.879883 46762.343750 132 230 214
5894.496094 9536.604492 46775.707031 131 231 213
5967.919434 9538.369141 46784.363281 133 232 214
6041.932129 9541.022461 46797.378906 131 229 211
6115.604492 9543.081055 46807.476562 128 227 209
6189.253418 9545.055664 46817.160156 131 230 212
6263.294434 9547.582031 46829.554688 137 232 215
6336.770508 9549.200195 46837.488281 135 228 213
6410.461914 9551.101562 46846.816406 127 227 210
6483.554688 9552.080078 46851.617188 123 234 213
6556.603516 9552.971680 46855.988281 127 237 218
6630.229004 9554.674805 46864.343750 133 237 221
6703.650879 9556.051758 46871.093750 130 231 213
6777.528809 9558.041016 46880.855469 129 229 210
6851.015137 9559.443359 46887.730469 130 231 212
6924.557129 9560.892578 46894.839844 128 229 211
6998.486328 9562.839844 46904.394531 120 223 204
7071.987305 9564.168945 46910.914062 130 231 213
7146.321777 9566.586914 46922.769531 138 237 219
7220.434082 9568.662109 46932.945312 139 236 219
7294.762695 9570.979492 46944.312500 146 241 222
7369.678711 9574.013672 46959.195312 140 235 215
7443.927734 9576.130859 46969.582031 136 231 210
7518.780273 9578.976562 46983.539062 128 227 202
7592.808105 9580.726562 46992.125000 131 232 204
7666.960938 9582.600586 47001.312500 133 233 205
7742.145996 9585.716797 47016.597656 136 233 208
7816.847656 9588.182617 47028.691406 131 225 201
7892.509766 9591.768555 47046.285156 130 225 201
7967.568359 9594.564453 47059.992188 131 229 204
8042.430664 9597.074219 47072.304688 128 229 204
8117.506836 9599.791992 47085.636719 123 226 201
8191.467773 9601.155273 47092.320312 124 231 205
8266.308594 9603.515625 47103.898438 132 241 215
8341.000000 9605.663086 47114.429688 126 233 208
8415.596680 9607.665039 47124.250000 124 227 204
8490.308594 9609.762695 47134.542969 130 230 211
8564.118164 9610.812500 47139.687500 132 229 213
8638.398438 9612.368164 47147.320312 135 228 215
8712.176758 9613.344727 47152.109375 129 225 211
8786.202148 9614.575195 47158.144531 124 223 208
8861.105469 9616.736328 47168.746094 122 224 206
8935.722656 9618.556641 47177.675781 119 225 203
9011.626953 9621.719727 47193.191406 121 230 204
9087.019531 9624.291992 47205.808594 112 222 194
9162.816406 9627.247070 47220.300781 113 226 195
9239.700195 9631.289062 47240.125000 109 222 189
9315.578125 9634.226562 47254.535156 111 226 193
9392.450195 9638.138672 47273.722656 112 228 193
9467.933594 9640.576172 47285.679688 107 223 186
9543.522461 9643.083008 47297.972656 106 222 183
9620.069336 9646.512695 47314.796875 109 221 183
9695.530273 9648.809570 47326.058594 114 220 183
9775.665039 9655.688477 47359.800781 117 219 182
9857.505859 9664.137695 47401.246094 108 206 172
9939.544922 9672.655273 47443.019531 86 182 149
10016.141602 9675.791016 47458.398438 84 178 148
10086.675781 9673.066406 47445.039062 91 183 157
10178.958984 9691.088867 47533.437500 85 173 148
10272.143555 9709.704102 47624.738281 91 174 152
10393.089844 9754.109375 47842.542969 99 176 156
10390.120117 9682.411133 47490.875000 111 183 164
10329.265625 9558.157227 46881.421875 134 195 179
11230.100586 10319.328125 50614.863281 110 157 141
2701.776367 9833.303711 47867.976562 59 135 101
2766.494385 9800.392578 47707.773438 58 133 101
2828.661133 9760.389648 47513.035156 63 140 107
2894.611328 9735.134766 47390.097656 68 146 116
2962.442871 9717.297852 47303.269531 67 149 120
3027.437012 9691.238281 47176.410156 78 166 139
3095.403076 9675.694336 47100.746094 88 181 155
3161.937012 9656.491211 47007.265625 95 195 166
3230.384277 9643.862305 46945.789062 98 205 174
3299.815918 9634.663086 46901.011719 98 208 175
3368.272461 9623.074219 46844.593750 104 218 184
3438.563477 9617.103516 46815.531250 104 221 185
3508.338379 9609.965820 46780.781250 103 219 182
3578.988770 9605.464844 46758.875000 106 221 185
3650.141602 9602.464844 46744.265625 109 223 187
3720.865967 9598.475586 46724.847656 107 221 186
3792.307861 9596.454102 46715.011719 108 222 186
3863.430420 9593.715820 46701.679688 109 225 189
3934.850098 9591.801758 46692.359375 108 225 190
4006.345215 9590.137695 46684.257812 106 222 188
4077.572021 9587.900391 46673.371094 107 219 188
4149.128906 9586.504883 46666.574219 112 224 193
4220.202148 9584.057617 46654.664062 115 224 197
4291.269531 9581.680664 46643.093750 115 224 196
4362.440430 9579.609375 46633.007812 116 227 199
4433.686035 9577.766602 46624.039062 114 225 196
4505.467285 9577.120117 46620.894531 115 225 196
4577.428711 9576.872070 46619.687500 113 225 195
4649.521973 9576.903320 46619.835938 114 227 194
4722.000488 9577.714844 46623.785156 116 229 195
4794.794922 9579.133789 46630.691406 114 227 193
4867.627441 9580.584961 46637.757812 114 230 195
4941.164062 9583.359375 46651.261719 112 227 194
5014.674805 9586.004883 46664.140625 115 230 199
5088.261230 9588.717773 46677.347656 111 228 199
5161.945312 9591.537109 46691.070312 110 228 201
5234.958008 9593.046875 46698.421875 113 228 203
5308.252930 9595.026367 46708.058594 112 224 202
5381.152832 9596.248047 46714.003906 113 224 205
5454.043945 9597.421875 46719.718750 126 235 219
5527.344727 9599.276367 46728.746094 128 234 220
5600.386719 9600.639648 46735.382812 137 241 228
5674.102539 9603.109375 46747.406250 139 244 231
5747.675293 9605.276367 46757.957031 133 236 223
5821.381348 9607.610352 46769.316406 137 239 226
5895.422852 9610.434570 46783.066406 138 241 227
5968.881348 9612.250000 46791.902344 141 243 229
6042.933105 9614.966797 46805.128906 144 245 229
6116.635254 9617.070312 46815.367188 144 246 230
6190.299805 9619.065430 46825.078125 143 242 227
6264.342285 9621.593750 46837.386719 145 240 226
6337.808594 9623.191406 46845.164062 136 229 218
6411.476562 9625.054688 46854.230469 124 225 210
6484.558594 9626.006836 46858.867188 124 236 218
6557.584961 9626.856445 46863.003906 129 241 223
6631.160156 9628.483398 46870.925781 140 247 231
6704.540527 9629.795898 46877.316406 136 242 226
6778.308105 9631.629883 46886.246094 141 248 232
6851.685059 9632.876953 46892.316406 143 248 234
6925.093262 9634.141602 46898.468750 128 233 219
6998.847168 9635.855469 46906.812500 140 244 229
7072.221680 9637.016602 46912.464844 141 243 229
7146.370605 9639.199219 46923.089844 145 243 228
7220.342773 9641.102539 46932.355469 145 239 223
7294.541016 9643.265625 46942.886719 142 235 217
7369.280762 9646.095703 46956.660156 144 237 218
7443.413574 9648.083984 46966.339844 129 222 203
7518.139648 9650.794922 46979.535156 129 226 204
7592.093262 9652.471680 46987.699219 130 230 206
7666.203125 9654.314453 46996.667969 133 233 210
7741.330566 9657.390625 47011.644531 129 227 207
7816.007324 9659.853516 47023.632812 137 230 213
7891.627441 9663.426758 47041.027344 146 235 221
7966.646484 9666.204102 47054.550781 143 236 223
8041.465820 9668.692383 47066.660156 136 231 218
8116.487793 9671.375977 47079.726562 132 230 216
8190.406738 9672.709961 47086.218750 137 239 224
8265.184570 9675.026367 47097.496094 138 242 226
8339.834961 9677.154297 47107.851562 126 231 215
8414.369141 9679.110352 47117.375000 122 226 212
8488.958984 9681.097656 47127.050781 125 225 214
8562.650391 9682.035156 47131.609375 119 216 206
8636.775391 9683.442383 47138.460938 133 226 217
8710.440430 9684.314453 47142.710938 137 228 220
8784.355469 9685.449219 47148.234375 140 233 223
8859.125977 9687.500000 47158.214844 157 248 237
8933.658203 9689.258789 47166.777344 149 244 231
9009.428711 9692.320312 47181.683594 121 225 204
9084.683594 9694.783203 47193.667969 111 221 195
9160.375000 9697.669922 47207.718750 114 227 199
9237.198242 9701.698242 47227.332031 113 228 197
9313.083008 9704.686523 47241.875000 113 227 194
9390.046875 9708.743164 47261.625000 110 228 193
9465.621094 9711.311523 47274.128906 108 225 188
9541.377930 9714.026367 47287.343750 111 226 190
9618.157227 9717.734375 47305.390625 108 220 183
9693.796875 9720.242188 47317.601562 109 216 178
9774.418945 9727.670898 47353.765625 114 216 179
9856.893555 9736.820312 47398.304688 106 204 169
9939.481445 9745.944336 47442.718750 92 185 155
10016.134766 9749.159180 47458.367188 87 180 152
10086.273438 9746.032227 47443.148438 89 180 154
10179.057617 9764.674805 47533.894531 85 171 147
10271.138672 9782.378906 47620.082031 90 172 150
10395.046875 9829.928711 47851.550781 101 177 157
10402.811523 9767.752930 47548.882812 117 187 170
10354.071289 9653.767578 46994.003906 138 198 183
11280.542969 10444.286133 50842.207031 92 140 124
2705.763184 9921.931641 47938.613281 60 132 101
2769.697266 9885.584961 47763.003906 59 132 102
2831.005615 9841.999023 47552.414062 64 138 108
2896.569824 9815.040039 47422.164062 65 142 113
2964.183838 9796.186523 47331.070312 61 143 114
3028.746094 9768.399414 47196.812500 74 161 133
3096.443359 9751.791992 47116.574219 90 182 155
3162.627441 9731.292969 47017.531250 94 194 164
3230.843262 9717.826172 46952.460938 97 206 173
3300.106689 9708.032227 46905.140625 96 208 175
3368.337158 9695.686523 46845.492188 99 214 179
3438.508545 9689.329102 46814.781250 101 218 183
3508.163574 9681.809570 46778.449219 101 219 185
3578.753906 9677.123047 46755.804688 104 220 185
3649.897461 9674.088867 46741.140625 109 223 187
3720.612549 9670.057617 46721.667969 108 222 186
3792.070557 9668.075195 46712.085938 106 220 184
3863.228760 9665.416016 46699.238281 110 227 190
3934.680908 9663.576172 46690.351562 109 226 191
4006.212891 9661.996094 46682.714844 104 223 188
4077.476074 9659.834961 46672.273438 105 221 188
4149.050781 9658.473633 46665.695312 108 223 193
4220.166992 9656.109375 46654.273438 113 226 198
4291.285645 9653.831055 46643.269531 116 226 199
4362.503906 9651.847656 46633.683594 111 225 197
4433.785156 9650.067383 46625.082031 107 222 192
4505.574219 9649.429688 46622.000000 107 222 191
4577.545410 9649.196289 46620.875000 107 222 191
4649.644043 9649.234375 46621.058594 110 225 192
4722.133301 9650.070312 46625.097656 113 228 195
4794.953613 9651.548828 46632.238281 112 227 194
4867.815430 9653.063477 46639.558594 113 228 195
4941.400879 9655.949219 46653.500000 110 225 194
5014.964355 9658.709961 46666.839844 106 224 192
5088.595703 9661.520508 46680.417969 106 223 193
5162.306152 9664.400391 46694.332031 107 224 197
5235.313965 9665.903320 46701.593750 112 227 201
5308.656738 9667.976562 46711.613281 112 224 202
5381.637207 9669.342773 46718.210938 118 227 208
5454.632812 9670.699219 46724.765625 135 243 226
5528.057129 9672.769531 46734.769531 140 242 230
5601.187500 9674.280273 46742.066406 139 238 230
5674.984863 9676.889648 46754.675781 151 248 242
5748.592285 9679.113281 46765.417969 141 240 232
5822.301270 9681.450195 46776.710938 127 229 216
5896.348145 9684.284180 46790.406250 134 236 222
5969.799805 9686.084961 46799.105469 140 241 227
6043.830078 9688.769531 46812.078125 145 245 231
6117.519531 9690.851562 46822.132812 147 247 233
6191.152832 9692.796875 46831.531250 146 244 231
6265.130371 9695.228516 46843.285156 149 243 232
6338.537109 9696.732422 46850.546875 146 238 227
6412.129883 9698.483398 46859.011719 136 236 222
6485.177246 9699.379883 46863.335938 131 242 225
6558.166504 9700.169922 46867.160156 132 244 225
6631.680176 9701.710938 46874.601562 139 246 231
6705.013184 9702.956055 46880.617188 135 244 228
6778.664551 9704.630859 46888.710938 130 238 223
6851.929688 9705.723633 46893.988281 135 243 230
6925.199219 9706.798828 46899.183594 127 233 221
6998.775879 9708.278320 46906.332031 132 238 223
7072.024414 9709.276367 46911.156250 132 234 220
7145.986816 9711.225586 46920.570312 139 240 226
7219.812500 9712.950195 46928.906250 149 245 231
7293.869629 9714.949219 46938.562500 161 255 239
7368.426270 9717.567383 46951.214844 148 241 224
7442.437500 9719.422852 46960.179688 127 222 202
7517.025879 9721.989258 46972.578125 128 227 207
7590.895508 9723.584961 46980.289062 126 228 207
7664.949219 9725.383789 46988.980469 124 223 204
7740.006836 9728.411133 47003.609375 137 236 216
7814.645508 9730.861328 47015.441406 167 254 243
7890.217285 9734.416016 47032.621094 177 255 251
7965.194824 9737.179688 47045.972656 172 255 247
8039.980469 9739.662109 47057.964844 169 254 245
8114.967285 9742.339844 47070.906250 160 247 238
8188.863281 9743.672852 47077.347656 153 244 235
8263.626953 9746.005859 47088.617188 153 249 238
8338.272461 9748.160156 47099.023438 153 252 240
8412.804688 9750.144531 47108.613281 141 239 228
8487.379883 9752.146484 47118.285156 131 227 218
8561.052734 9753.083984 47122.816406 154 243 238
8635.155273 9754.492188 47129.621094 164 246 243
8708.798828 9755.363281 47133.828125 161 247 238
8782.699219 9756.503906 47139.339844 162 248 239
8857.459961 9758.575195 47149.347656 167 253 241
8931.989258 9760.358398 47157.964844 169 255 246
9007.751953 9763.450195 47172.902344 112 211 191
9082.978516 9765.915039 47184.812500 109 217 193
9158.665039 9768.832031 47198.902344 118 230 203
9235.523438 9772.943359 47218.765625 114 228 199
9311.458984 9776.020508 47233.632812 108 224 191
9388.599609 9780.306641 47254.343750 107 225 191
9464.344727 9783.082031 47267.750000 108 226 189
9540.373047 9786.105469 47282.363281 115 229 193
9617.551758 9790.254883 47302.410156 109 220 184
9693.518555 9793.117188 47316.238281 109 213 178
9774.834961 9801.300781 47355.777344 115 216 181
9858.115234 9811.317383 47404.175781 107 206 173
9941.391602 9821.181641 47451.835938 97 191 161
10018.168945 9824.528320 47468.007812 85 178 149
10087.878906 9820.947266 47450.699219 88 177 152
10181.355469 9840.386719 47544.625000 91 176 151
10272.162109 9856.986328 47624.824219 92 170 150
10399.771484 9908.412109 47873.296875 98 171 152
10420.446289 9857.951172 47629.488281 123 189 172
10386.253906 9756.655273 47140.070312 151 209 194
11346.187500 10584.128906 51138.074219 100 145 129
2833.130127 9922.960938 47588.101562 62 137 107
2898.415771 9894.660156 47452.382812 64 141 112
2965.873291 9874.989258 47358.042969 55 137 109
3030.116211 9845.821289 47218.160156 68 155 126
3097.615234 9828.356445 47134.406250 90 182 155
3163.534424 9806.797852 47031.015625 92 192 162
3231.573975 9792.631836 46963.078125 100 207 173
3300.702148 9782.315430 46913.605469 100 212 177
3368.743652 9769.291992 46851.148438 98 213 178
3438.808105 9762.560547 46818.859375 100 217 182
3508.356201 9754.668945 46781.015625 101 220 185
3578.898438 9749.805664 46757.691406 102 219 184
3650.035400 9746.722656 46742.910156 106 219 186
3720.735352 9742.615234 46723.210938 108 222 188
3792.201660 9740.631836 46713.699219 110 224 188
3863.372314 9737.978516 46700.972656 110 226 189
3934.835938 9736.147461 46692.191406 109 226 191
4006.381836 9734.582031 46684.683594 106 224 189
4077.656494 9732.423828 46674.335938 106 224 190
4149.237793 9731.061523 46667.800781 110 224 193
4220.375488 9728.721680 46656.582031 110 223 194
4291.523926 9726.486328 46645.859375 110 221 193
4362.772461 9724.546875 46636.558594 107 221 192
4434.077637 9722.793945 46628.152344 106 221 190
4505.875977 9722.162109 46625.125000 109 224 193
4577.858398 9721.941406 46624.062500 109 224 193
4649.967773 9721.992188 46624.308594 110 225 192
4722.468262 9722.847656 46628.410156 111 226 193
4795.305176 9724.358398 46635.652344 110 225 192
4868.180176 9725.901367 46643.050781 109 226 192
4941.791504 9728.847656 46657.187500 113 230 198
5015.393066 9731.692383 46670.824219 109 226 196
5089.045410 9734.551758 46684.539062 107 224 197
5162.728027 9737.389648 46698.148438 107 221 195
5235.680176 9738.789062 46704.863281 110 223 198
5308.999512 9740.825195 46714.625000 113 222 201
5382.009766 9742.247070 46721.445312 117 224 204
5455.061523 9743.705078 46728.437500 127 233 216
5528.545898 9745.887695 46738.902344 140 239 228
5601.723633 9747.480469 46746.542969 139 236 227
5675.545410 9750.139648 46759.292969 154 247 243
5749.145020 9752.353516 46769.914062 158 251 245
5822.819336 9754.638672 46780.871094 143 240 229
5896.820801 9757.408203 46794.156250 139 237 225
5970.236328 9759.154297 46802.527344 142 240 227
6044.200684 9761.744141 46814.945312 142 238 226
6117.842773 9763.757812 46824.605469 138 235 222
6191.418457 9765.621094 46833.539062 143 240 226
6265.302246 9767.920898 46844.566406 146 241 229
6338.630371 9769.311523 46851.238281 148 241 227
6412.137207 9770.942383 46859.062500 140 241 224
6485.138672 9771.776367 46863.062500 132 243 224
6558.096680 9772.527344 46866.660156 130 242 221
6631.557129 9774.001953 46873.734375 136 241 226
6704.857422 9775.210938 46879.531250 137 244 227
6778.440430 9776.801758 46887.160156 130 236 223
6851.637695 9777.809570 46891.992188 126 231 220
6924.829102 9778.786133 46896.679688 136 239 226
6998.308594 9780.146484 46903.199219 134 235 223
7071.489258 9781.065430 46907.609375 140 242 228
7145.350098 9782.896484 46916.390625 135 237 223
7219.092773 9784.530273 46924.226562 140 241 225
7293.066895 9786.443359 46933.398438 134 233 215
7367.516602 9788.950195 46945.421875 139 236 219
7441.456055 9790.736328 46953.984375 130 226 208
7515.956055 9793.218750 46965.890625 121 221 203
7589.768066 9794.765625 46973.308594 129 231 213
7663.777344 9796.535156 46981.796875 121 221 202
7738.773926 9799.521484 46996.121094 136 230 214
7813.370605 9801.951172 47007.773438 164 250 236
7888.896973 9805.491211 47024.750000 165 243 231
7963.837402 9808.245117 47037.957031 171 242 235
8038.599609 9810.732422 47049.882812 182 248 244
8113.566406 9813.421875 47062.781250 179 249 244
8187.456055 9814.772461 47069.257812 176 254 247
8262.231445 9817.150391 47080.664062 167 250 242
8336.885742 9819.345703 47091.191406 164 251 244
8411.447266 9821.394531 47101.015625 151 243 232
8486.085938 9823.497070 47111.097656 122 213 203
8559.811523 9824.516602 47115.988281 165 251 243
8633.996094 9826.039062 47123.292969 179 255 250
8707.692383 9826.987305 47127.839844 184 255 251
8781.642578 9828.204102 47133.671875 177 253 243
8856.478516 9830.382812 47144.121094 167 248 234
8931.056641 9832.242188 47153.042969 165 252 235
9006.901367 9835.455078 47168.445312 134 229 208
9082.193359 9838.017578 47180.734375 117 221 198
9157.947266 9841.035156 47195.210938 115 227 199
9234.891602 9845.274414 47215.535156 110 225 193
9310.877930 9848.433594 47230.687500 103 220 187
9388.180664 9852.924805 47252.230469 105 224 189
9464.073242 9855.879883 47266.398438 106 223 188
9540.329102 9859.163086 47282.144531 110 224 189
9617.852539 9863.697266 47303.890625 108 218 182
9694.099609 9866.864258 47319.078125 107 212 177
9775.931641 9875.625000 47361.093750 110 209 176
9859.754883 9886.251953 47412.058594 104 201 169
9943.490234 9896.635742 47461.855469 100 195 165
10020.405273 9900.127930 47478.605469 87 179 150
10089.897461 9896.289062 47460.191406 85 175 149
10183.846680 9916.320312 47556.257812 89 174 149
10273.560547 9931.969727 47631.308594 91 170 149
10403.657227 9986.159180 47891.187500 99 170 152
10433.958984 9944.468750 47691.253906 127 191 175
10410.843750 9852.809570 47251.675781 148 204 190
11393.839844 10707.976562 51352.847656 99 142 127
2776.216553 10056.893555 47875.429688 57 132 103
2835.929932 10006.415039 47635.128906 61 138 107
2900.805908 9976.246094 47491.515625 64 143 113
2967.980469 9955.277344 47391.691406 58 139 110
3031.780029 9924.270508 47244.085938 64 151 123
3099.030273 9905.753906 47155.937500 87 179 151
3164.602051 9882.845703 47046.882812 88 188 157
3232.397949 9867.756836 46975.054688 100 206 172
3301.329102 9856.720703 46922.519531 104 216 181
3369.099609 9842.768555 46856.097656 97 212 178
3439.005127 9835.509766 46821.542969 99 215 180
3508.374023 9827.046875 46781.253906 104 222 187
3578.811768 9821.859375 46756.562500 104 221 186
3649.898682 9818.623047 46741.156250 107 220 186
3720.539551 9814.336914 46720.750000 107 221 188
3791.995117 9812.321289 46711.156250 108 223 188
3863.170654 9809.670898 46698.535156 108 224 187
3934.648926 9807.872070 46689.976562 110 226 191
4006.225830 9806.378906 46682.867188 105 224 188
4077.530762 9804.285156 46672.898438 104 222 188
4149.132812 9802.965820 46666.617188 107 222 188
4220.325195 9800.740234 46656.023438 105 219 187
4291.541504 9798.643555 46646.046875 107 220 189
4362.856445 9796.838867 46637.453125 106 221 188
4434.217285 9795.193359 46629.621094 104 221 188
4506.032715 9794.589844 46626.746094 107 224 192
4578.029785 9794.393555 46625.808594 107 224 193
4650.139160 9794.438477 46626.027344 108 226 193
4722.637207 9795.289062 46630.078125 110 228 195
4795.486816 9796.833008 46637.421875 107 224 192
4868.378418 9798.415039 46644.957031 104 222 190
4942.017090 9801.431641 46659.316406 103 223 192
5015.652832 9804.356445 46673.242188 102 221 191
5089.326660 9807.272461 46687.121094 108 226 198
5162.987305 9810.082031 46700.496094 108 223 197
5235.894043 9811.400391 46706.769531 111 223 199
5309.220215 9813.458008 46716.570312 117 227 204
5382.296387 9815.004883 46723.933594 123 230 208
5455.445801 9816.642578 46731.726562 130 235 215
5529.026855 9819.003906 46742.968750 137 236 222
5602.274414 9820.720703 46751.140625 139 233 224
5676.137695 9823.458008 46764.171875 144 236 228
5749.733887 9825.669922 46774.703125 148 238 229
5823.370117 9827.895508 46785.296875 149 239 230
5897.333008 9830.610352 46798.222656 145 234 225
5970.716797 9832.306641 46806.292969 144 234 223
6044.623047 9834.811523 46818.218750 149 240 228
6118.217285 9836.755859 46827.472656 142 236 222
6191.736328 9838.535156 46835.945312 142 238 223
6265.533691 9840.709961 46846.300781 144 240 225
6338.794434 9842.001953 46852.449219 142 238 222
6412.239258 9843.547852 46859.808594 131 234 214
6485.222168 9844.357422 46863.664062 134 244 223
6558.177246 9845.107422 46867.234375 131 241 219
6631.623047 9846.570312 46874.199219 141 244 225
6704.914062 9847.774414 46879.929688 138 240 223
6778.447754 9849.303711 46887.210938 140 243 228
6851.586914 9850.235352 46891.640625 141 241 229
6924.699219 9851.108398 46895.796875 142 240 228
6998.073730 9852.333008 46901.628906 143 239 226
7071.175781 9853.151367 46905.527344 138 239 223
7144.896484 9854.807617 46913.410156 126 229 213
7218.517578 9856.293945 46920.488281 135 238 221
7292.355469 9858.044922 46928.820312 130 233 216
7366.625977 9860.339844 46939.746094 133 233 216
7440.435547 9861.978516 46947.550781 140 238 220
7514.771484 9864.276367 46958.488281 137 238 220
7588.476562 9865.711914 46965.320312 128 230 210
7662.389160 9867.385742 46973.289062 113 213 192
7737.242676 9870.228516 46986.820312 131 224 206
7811.737793 9872.566406 46997.949219 168 249 235
7887.132812 9875.986328 47014.234375 185 255 243
7961.977539 9878.663086 47026.972656 196 255 247
8036.657227 9881.086914 47038.511719 206 255 254
8111.523926 9883.696289 47050.933594 200 255 251
8185.346680 9884.998047 47057.128906 185 254 242
8260.033203 9887.310547 47068.140625 180 253 242
8334.605469 9889.448242 47078.312500 179 255 247
8409.099609 9891.455078 47087.871094 151 239 224
8483.686523 9893.537109 47097.781250 119 207 192
8557.395508 9894.567383 47102.683594 159 245 228
8631.560547 9896.104492 47110.000000 176 255 241
8705.230469 9897.052734 47114.515625 189 255 249
8779.172852 9898.291992 47120.414062 189 255 245
8854.023438 9900.526367 47131.050781 182 255 238
8928.624023 9902.447266 47140.195312 170 253 230
9004.541016 9905.785156 47156.085938 154 246 222
9079.887695 9908.446289 47168.753906 126 226 199
9155.734375 9911.607422 47183.800781 117 226 195
9232.825195 9916.054688 47204.972656 113 227 194
9308.930664 9919.381836 47220.812500 106 221 188
9386.513672 9924.218750 47243.839844 109 226 191
9462.645508 9927.459961 47259.269531 110 225 191
9539.252930 9931.144531 47276.812500 109 222 188
9617.314453 9936.277344 47301.246094 111 220 185
9694.008789 9939.930664 47318.636719 111 215 182
9776.684570 9949.616211 47364.742188 108 207 175
9861.444336 9961.262695 47420.183594 99 195 165
9945.932617 9972.464844 47473.511719 98 192 165
10022.939453 9976.055664 47490.609375 89 181 154
10091.882812 9971.627930 47469.531250 86 176 151
10186.417969 9992.369141 47568.265625 86 171 148
10274.875977 10006.893555 47637.406250 92 171 150
10408.635742 10065.016602 47914.101562 99 171 153
10453.013672 10036.500000 47778.347656 128 191 175
10446.132812 9959.509766 47411.843750 136 191 178
11456.908203 10847.083008 51637.097656 96 137 124
2778.525879 10139.339844 47915.253906 61 135 107
2837.645752 10086.161133 47663.949219 57 133 102
2902.209717 10054.535156 47514.496094 59 137 107
2969.154541 10032.516602 47410.441406 59 141 113
3032.643555 10000.162109 47257.546875 60 147 119
3099.737305 9980.937500 47166.695312 83 176 144
3165.082764 9957.096680 47054.031250 85 185 152
3232.712158 9941.350586 46979.621094 98 204 169
3301.502197 9929.787109 46924.976562 110 219 183
3369.080322 9915.155273 46855.828125 99 212 176
3438.867920 9907.503906 46819.671875 97 214 179
3508.094238 9898.584961 46777.523438 105 223 188
3578.431396 9893.097656 46751.589844 106 224 190
3649.453857 9889.683594 46735.460938 109 223 190
3720.024414 9885.202148 46714.281250 109 223 189
3791.454834 9883.132812 46704.500000 107 221 187
3862.620361 9880.462891 46691.886719 107 223 188
3934.105469 9878.693359 46683.523438 111 227 190
4005.708008 9877.277344 46676.832031 106 225 187
4077.041504 9875.260742 46667.300781 103 221 186
4148.661133 9873.993164 46661.312500 105 221 186
4219.907227 9871.896484 46651.402344 105 220 187
4291.186523 9869.946289 46642.187500 111 226 192
4362.563477 9868.281250 46634.320312 109 226 192
4433.977051 9866.752930 46627.097656 106 224 190
4505.811523 9866.194336 46624.453125 107 225 193
4577.820801 9866.029297 46623.679688 106 224 192
4649.921875 9866.065430 46623.847656 106 224 192
4722.409180 9866.906250 46627.824219 108 227 195
4795.267578 9868.487305 46635.289062 106 224 192
4868.173828 9870.116211 46642.992188 104 222 192
4941.853027 9873.244141 46657.769531 105 224 194
5015.537109 9876.291016 46672.167969 106 225 194
5089.256348 9879.318359 46686.480469 115 233 205
5162.939941 9882.194336 46700.066406 113 228 202
5235.836914 9883.504883 46706.261719 110 223 198
5309.206543 9885.660156 46716.445312 117 228 203
5382.362305 9887.365234 46724.503906 127 232 210
5455.606934 9889.186523 46733.109375 134 237 215
5529.285156 9891.735352 46745.156250 140 239 221
5602.590332 9893.559570 46753.773438 146 240 228
5676.499023 9896.388672 46767.148438 152 242 230
5750.109863 9898.635742 46777.765625 156 242 229
5823.738281 9900.855469 46788.253906 158 243 231
5897.700684 9903.582031 46801.140625 157 242 231
5971.083496 9905.281250 46809.167969 149 235 221
6044.978027 9907.777344 46820.964844 151 239 223
6118.559570 9909.708984 46830.089844 154 245 229
6192.062988 9911.469727 46838.414062 147 242 224
6265.843262 9913.627930 46848.613281 146 243 225
6339.094238 9914.908203 46854.664062 140 238 219
6412.547852 9916.474609 46862.062500 121 226 203
6485.557129 9917.325195 46866.082031 132 241 219
6558.551270 9918.133789 46869.906250 131 238 215
6632.037109 9919.661133 46877.121094 146 247 225
6705.356445 9920.909180 46883.019531 143 242 223
6778.898926 9922.456055 46890.332031 150 247 229
6852.031250 9923.376953 46894.683594 149 244 227
6925.107422 9924.198242 46898.562500 149 240 224
6998.432129 9925.354492 46904.027344 149 241 225
7071.488281 9926.110352 46907.601562 138 235 218
7145.107910 9927.633789 46914.796875 148 249 229
7218.636719 9929.000977 46921.261719 138 243 223
7292.361816 9930.609375 46928.859375 141 247 228
7366.479004 9932.713867 46938.808594 138 240 222
7440.173340 9934.213867 46945.894531 137 237 220
7514.361328 9936.335938 46955.925781 140 242 222
7587.973633 9937.665039 46962.203125 114 217 196
7661.796875 9939.242188 46969.656250 102 202 180
7736.515137 9941.939453 46982.402344 133 229 204
7810.905762 9944.169922 46992.941406 180 255 240
7886.160156 9947.448242 47008.437500 196 254 244
7960.906738 9950.032227 47020.648438 188 250 227
8035.489746 9952.367188 47031.679688 195 251 229
8110.226562 9954.848633 47043.406250 198 255 234
8183.961426 9956.066406 47049.164062 185 251 228
8258.498047 9958.230469 47059.390625 174 248 226
8332.930664 9960.233398 47068.855469 172 253 229
8407.283203 9962.104492 47077.699219 158 241 219
8481.705078 9964.026367 47086.781250 137 222 199
8555.310547 9964.963867 47091.210938 162 246 224
8629.339844 9966.375000 47097.878906 168 246 225
8702.896484 9967.222656 47101.882812 173 247 226
8776.751953 9968.393555 47107.417969 183 252 232
8851.515625 9970.569336 47117.703125 182 254 230
8926.076172 9972.483398 47126.746094 183 255 235
9001.979492 9975.853516 47142.667969 154 242 215
9077.311523 9978.541992 47155.375000 126 224 194
9153.202148 9981.795898 47170.753906 121 226 193
9230.394531 9986.407227 47192.542969 118 229 196
9306.603516 9989.890625 47209.003906 109 222 190
9384.406250 9995.017578 47233.234375 108 224 190
9460.699219 9998.469727 47249.546875 111 227 192
9537.554688 10002.458984 47268.398438 109 222 187
9616.004883 10008.046875 47294.804688 113 221 187
9693.017578 10012.065430 47313.796875 112 215 183
9776.405273 10022.559570 47363.386719 106 207 175
9862.082031 10035.226562 47423.250000 99 196 165
9947.262695 10047.206055 47479.859375 88 181 155
10024.154297 10050.699219 47496.367188 82 175 149
10092.326172 10045.461914 47471.617188 83 175 150
10187.128906 10066.616211 47571.585938 87 172 149
10274.984375 10080.651367 47637.910156 92 172 151
10411.650391 10142.033203 47927.980469 93 166 147
10466.580078 10123.490234 47840.355469 121 185 170
10471.803711 10057.467773 47528.355469 129 183 170
11499.471680 10967.513672 51828.937500 93 133 122
2780.714844 10221.466797 47953.000000 62 137 108
2839.440918 10166.281250 47694.101562 55 129 100
2903.709473 10133.231445 47539.050781 56 132 102
2970.375977 10109.973633 47429.941406 61 142 111
3033.568115 10076.297852 47271.953125 58 145 113
3100.530029 10056.432617 47178.761719 75 167 135
3165.667236 10031.698242 47062.718750 83 180 146
3233.134277 10015.292969 46985.753906 101 204 170
3301.776611 10003.168945 46928.878906 112 221 185
3369.156982 9987.826172 46856.898438 100 212 176
3438.821289 9979.755859 46819.039062 97 211 176
3507.888916 9970.323242 46774.785156 106 221 188
3578.109619 9964.483398 46747.386719 105 223 189
3649.050293 9960.839844 46730.292969 109 223 190
3719.536133 9956.120117 46708.152344 109 223 190
3790.933350 9953.972656 46698.078125 108 222 188
3862.088135 9951.281250 46685.453125 104 220 185
3933.583252 9949.549805 46677.328125 107 223 186
4005.220947 9948.234375 46671.156250 103 222 184
4076.592041 9946.315430 46662.152344 103 221 185
4148.240234 9945.126953 46656.578125 106 224 188
4219.556152 9943.196289 46647.523438 105 222 186
4290.913086 9941.426758 46639.218750 110 225 189
4362.365234 9939.931641 46632.207031 107 225 191
4433.842285 9938.541016 46625.679688 106 225 190
4505.695312 9938.023438 46623.253906 108 227 193
4577.710449 9937.875000 46622.558594 105 224 190
4649.794922 9937.877930 46622.570312 102 220 188
4722.255371 9938.672852 46626.300781 101 221 189
4795.105957 9940.253906 46633.718750 101 222 190
4868.018066 9941.913086 46641.503906 102 222 193
4941.691406 9945.055664 46656.242188 105 225 197
5015.352539 9948.083008 46670.445312 103 222 193
5089.049805 9951.095703 46684.582031 110 227 200
5162.723633 9953.978516 46698.109375 109 224 198
5235.621582 9955.307617 46704.339844 110 222 197
5309.035645 9957.568359 46714.945312 120 229 203
5382.256348 9959.409180 46723.585938 129 235 211
5455.577148 9961.384766 46732.851562 141 243 221
5529.329590 9964.086914 46745.527344 149 246 225
5602.673340 9965.992188 46754.468750 151 245 225
5676.609375 9968.889648 46768.058594 156 244 226
5750.218262 9971.146484 46778.648438 158 241 225
5823.830566 9973.352539 46788.996094 157 239 222
5897.784180 9976.082031 46801.804688 157 238 222
5971.163574 9977.785156 46809.792969 155 239 222
6045.046387 9980.280273 46821.500000 158 244 227
6118.608887 9982.193359 46830.472656 158 248 229
6192.100098 9983.946289 46838.695312 153 247 227
6265.867676 9986.098633 46848.796875 150 248 226
6339.115723 9987.383789 46854.824219 142 243 221
6412.590332 9988.993164 46862.371094 127 232 208
6485.631348 9989.898438 46866.621094 136 243 220
6558.670410 9990.780273 46870.757812 134 239 216
6632.205078 9992.390625 46878.312500 144 242 221
6705.558105 9993.694336 46884.429688 146 242 221
6779.123535 9995.284180 46891.886719 150 244 221
6852.261230 9996.215820 46896.257812 153 245 223
6925.318848 9997.012695 46899.996094 160 248 227
6998.611328 9998.127930 46905.230469 151 238 218
7071.633301 9998.838867 46908.562500 145 239 218
7145.166504 10000.250000 46915.183594 143 244 221
7218.609863 10001.508789 46921.089844 127 232 210
7292.223633 10002.975586 46927.972656 127 234 213
7366.185547 10004.887695 46936.937500 141 244 223
7439.761230 10006.241211 46943.292969 139 241 221
7513.790039 10008.173828 46952.355469 137 240 218
7587.296875 10009.379883 46958.015625 133 235 213
7661.011719 10010.834961 46964.843750 118 219 193
7735.563965 10013.346680 46976.628906 126 223 195
7809.824707 10015.438477 46986.437500 164 247 223
7884.907715 10018.536133 47000.968750 187 255 231
7959.536621 10021.005859 47012.554688 189 253 226
8034.007812 10023.233398 47023.007812 188 252 222
8108.591797 10025.560547 47033.925781 179 246 214
8182.219727 10026.674805 47039.152344 175 246 217
8256.577148 10028.655273 47048.445312 171 248 218
8330.844727 10030.493164 47057.070312 168 250 222
8405.034180 10032.207031 47065.105469 151 239 210
8479.278320 10033.955078 47073.308594 139 229 203
8552.772461 10034.792969 47077.238281 121 212 183
8626.662109 10036.078125 47083.269531 132 221 190
8700.100586 10036.820312 47086.746094 144 228 197
8773.870117 10037.929688 47091.953125 156 235 205
8848.565430 10040.070312 47101.996094 164 244 212
8923.103516 10042.000000 47111.050781 172 249 224
8999.027344 10045.445312 47127.210938 163 249 219
9074.374023 10048.195312 47140.113281 139 236 203
9150.336914 10051.578125 47155.984375 117 220 188
9227.680664 10056.414062 47178.671875 114 223 189
9304.034180 10060.101562 47195.972656 109 222 189
9382.115234 10065.586914 47221.703125 102 218 184
9458.615234 10069.302734 47239.140625 111 225 191
9535.766602 10073.650391 47259.535156 113 225 191
9614.682617 10079.782227 47288.300781 112 220 186
9692.077148 10084.238281 47309.207031 116 219 187
9776.164062 10095.538086 47362.218750 108 207 176
9862.613281 10109.092773 47425.808594 92 189 158
9948.382812 10121.753906 47485.207031 85 179 152
10025.279297 10125.269531 47501.699219 79 173 146
10092.921875 10119.454102 47474.417969 84 177 152
10188.080078 10141.113281 47576.027344 87 176 152
10275.359375 10154.673828 47639.648438 94 174 153
10414.589844 10219.018555 47941.515625 88 161 142
10479.710938 10210.249023 47900.375000 117 183 165
10496.811523 10155.144531 47641.859375 129 185 171
11537.207031 11083.898438 51999.015625 97 137 125
2783.826416 10307.127930 48006.664062 62 134 104
2842.315674 10250.387695 47742.390625 59 132 102
2906.250244 10215.661133 47580.648438 59 134 103
2972.514404 10190.635742 47464.085938 63 142 110
3035.304688 10155.194336 47299.015625 60 143 110
3102.069580 10134.405273 47202.187500 71 158 124
3166.898193 10108.390625 47081.023438 80 173 139
3234.129150 10091.041016 47000.214844 101 203 168
3302.560547 10078.117188 46940.019531 112 219 183
3369.656250 10061.760742 46863.839844 99 210 175
3439.147461 10053.095703 46823.480469 97 212 176
3508.000000 10042.959961 46776.269531 105 220 187
3578.072266 10036.654297 46746.902344 101 219 185
3648.921143 10032.733398 46728.640625 105 219 186
3719.310791 10027.726562 46705.320312 106 220 187
3790.682617 10025.508789 46694.988281 109 223 189
3861.840332 10022.818359 46682.457031 102 218 183
3933.360840 10021.150391 46674.691406 106 221 185
4005.052490 10019.970703 46669.195312 103 222 184
4076.485107 10018.196289 46660.929688 104 223 185
4148.177246 10017.110352 46655.871094 107 227 188
4219.586914 10015.390625 46647.863281 104 220 183
4291.046875 10013.846680 46640.671875 106 222 185
4362.592773 10012.550781 46634.636719 105 223 188
4434.141602 10011.303711 46628.824219 104 224 188
4506.010254 10010.807617 46626.515625 106 226 191
4578.013672 10010.620117 46625.644531 104 224 188
4650.063965 10010.540039 46625.269531 101 221 188
4722.471191 10011.219727 46628.437500 104 225 192
4795.287598 10012.733398 46635.484375 104 226 194
4868.191895 10014.382812 46643.167969 99 220 191
4941.765625 10017.340820 46656.945312 110 230 202
5015.264160 10020.063477 46669.625000 106 227 198
5088.802246 10022.786133 46682.308594 105 223 196
5162.374512 10025.500000 46694.949219 107 223 196
5235.263672 10026.831055 46701.148438 113 225 197
5308.694336 10029.148438 46711.941406 126 234 208
5381.947266 10031.072266 46720.898438 132 238 212
5455.314453 10033.155273 46730.601562 142 244 219
5529.107910 10035.958008 46743.656250 146 244 218
5602.474121 10037.921875 46752.804688 149 244 217
5676.403320 10040.832031 46766.359375 151 241 216
5749.976074 10043.046875 46776.675781 153 237 214
5823.531250 10045.175781 46786.589844 162 246 224
5897.434082 10047.845703 46799.027344 157 242 221
5970.780273 10049.512695 46806.792969 161 247 226
6044.607422 10051.940430 46818.101562 168 255 238
6118.119629 10053.792969 46826.726562 153 247 225
6191.559082 10055.484375 46834.601562 149 242 221
6265.263672 10057.561523 46844.277344 150 248 225
6338.467773 10058.797852 46850.035156 149 250 229
6411.910645 10060.379883 46857.406250 144 248 225
6484.949707 10061.300781 46861.691406 144 250 227
6557.997559 10062.214844 46865.953125 136 243 220
6631.535156 10063.851562 46873.578125 139 241 220
6704.888672 10065.176758 46879.750000 145 242 219
6778.430176 10066.753906 46887.089844 141 238 213
6851.537598 10067.658203 46891.304688 145 239 214
6924.542969 10068.395508 46894.742188 154 243 220
6997.765137 10069.430664 46899.558594 148 236 212
7070.727539 10070.073242 46902.554688 144 236 212
7144.140625 10071.338867 46908.449219 139 237 210
7217.473145 10072.465820 46913.699219 132 234 210
7290.946289 10073.765625 46919.753906 132 235 211
7364.721191 10075.452148 46927.609375 139 238 217
7438.150879 10076.638672 46933.132812 140 238 217
7511.982910 10078.341797 46941.062500 135 236 212
7585.349609 10079.393555 46945.964844 130 233 209
7658.923828 10080.699219 46952.042969 125 229 200
7733.259766 10082.972656 46962.632812 126 229 198
7807.351074 10084.887695 46971.554688 136 230 200
7882.227051 10087.772461 46984.992188 148 230 199
7956.716797 10090.115234 46995.902344 155 232 200
8031.063965 10092.235352 47005.777344 157 238 200
8105.483398 10094.408203 47015.894531 154 236 199
8178.993652 10095.419922 47020.609375 148 231 197
8253.184570 10097.246094 47029.117188 145 232 199
8327.302734 10098.953125 47037.062500 143 235 203
8401.363281 10100.560547 47044.550781 142 238 205
8475.491211 10102.219727 47052.281250 133 231 199
8548.931641 10103.040039 47056.101562 136 234 203
8622.769531 10104.310547 47062.019531 135 230 199
8696.147461 10105.027344 47065.355469 135 227 195
8769.902344 10106.165039 47070.656250 138 225 192
