ply
		format ascii 1.0
		element vertex 38131
		property float x
		property float y
		property float z
		property uchar red
		property uchar green
		property uchar blue
		end_header
9458.229492 11952.492188 48357.402344 122 226 199
9535.775391 11955.979492 48371.511719 113 216 189
9622.555664 11970.900391 48431.878906 94 193 172
9712.019531 11988.903320 48504.714844 85 184 163
9805.233398 12011.223633 48595.019531 84 183 163
9897.380859 12031.909180 48678.707031 70 169 147
9981.216797 12042.254883 48720.562500 76 170 146
10089.899414 12082.196289 48882.160156 76 165 140
10194.706055 12116.938477 49022.718750 77 160 135
10325.803711 12182.186523 49286.699219 78 155 133
10435.781250 12221.742188 49446.734375 81 152 130
10515.537109 12225.586914 49462.289062 102 164 144
11003.506836 12700.547852 51383.886719 102 150 137
3511.534912 12146.547852 48837.031250 63 133 103
3580.048096 12122.868164 48741.820312 61 135 107
3646.274902 12092.581055 48620.050781 62 143 115
3715.045654 12071.784180 48536.433594 69 161 132
3785.142578 12056.036133 48473.113281 76 171 143
3853.784424 12036.353516 48393.976562 90 182 158
3925.209717 12025.949219 48352.144531 114 208 184
3995.870605 12013.634766 48302.632812 112 208 185
4067.884766 12005.766602 48270.996094 91 191 167
4140.824219 12000.863281 48251.285156 67 166 144
4213.361328 11994.989258 48227.667969 57 154 134
4287.097656 11992.673828 48218.355469 52 150 129
4360.580078 11989.738281 48206.554688 51 151 132
4434.243164 11987.391602 48197.117188 59 157 142
4508.312012 11986.199219 48192.324219 59 155 140
4582.556152 11985.505859 48189.535156 56 153 135
4657.246094 11985.981445 48191.449219 51 150 132
4732.423340 11987.675781 48198.261719 58 154 139
4807.683105 11989.522461 48205.687500 80 171 162
4883.230469 11992.020508 48215.726562 81 170 166
4959.094238 11995.209961 48228.550781 89 173 174
5034.649902 11997.568359 48238.035156 111 193 194
5110.379395 12000.266602 48248.886719 116 194 197
5185.619141 12001.754883 48254.867188 133 208 210
5260.701172 12002.840820 48259.234375 137 207 206
5336.049805 12004.495117 48265.886719 120 185 185
5411.146973 12005.546875 48270.117188 124 185 184
5486.376953 12006.860352 48275.394531 128 186 186
5561.268555 12007.408203 48277.597656 125 182 183
5636.299316 12008.237305 48280.933594 126 185 185
5711.803711 12010.041016 48288.183594 115 177 176
5787.269531 12011.718750 48294.925781 114 177 178
5863.655762 12015.239258 48309.085938 101 168 172
5939.961914 12018.508789 48322.230469 125 192 198
6016.606445 12022.374023 48337.769531 125 190 196
6093.796875 12027.221680 48357.257812 138 204 211
6170.283203 12030.578125 48370.757812 109 183 186
6247.608398 12035.471680 48390.429688 120 193 195
6324.347656 12039.132812 48405.148438 132 195 199
6401.043457 12042.626953 48419.199219 131 188 195
6478.351074 12047.177734 48437.496094 130 188 194
6554.837891 12050.115234 48449.308594 117 177 182
6631.733398 12053.729492 48463.839844 110 173 180
6707.742676 12055.671875 48471.648438 148 212 219
6783.788086 12057.633789 48479.535156 143 211 216
6860.750977 12061.166016 48493.738281 123 190 192
6937.359863 12064.005859 48505.156250 140 197 196
7015.275879 12069.034180 48525.375000 143 192 189
7092.985840 12073.606445 48543.757812 139 183 179
7170.730469 12078.139648 48561.984375 127 170 165
7248.792969 12083.109375 48581.964844 143 190 181
7325.592773 12085.893555 48593.160156 169 222 210
7402.574219 12088.918945 48605.324219 147 208 196
7478.703125 12090.503906 48611.699219 146 212 203
7554.418457 12091.396484 48615.285156 145 217 212
7630.612305 12093.029297 48621.851562 138 214 215
7706.459473 12094.086914 48626.101562 142 219 221
7781.920898 12094.524414 48627.859375 116 187 191
7856.843262 12094.122070 48626.246094 139 213 214
7931.369629 12093.125977 48622.238281 132 214 211
8005.852539 12092.082031 48618.039062 121 208 202
8080.481445 12091.275391 48614.796875 114 200 190
8154.878418 12090.139648 48610.234375 122 204 191
8229.882812 12089.916992 48609.339844 132 208 192
8304.254883 12088.778320 48604.761719 132 204 185
8377.043945 12085.375977 48591.082031 130 199 182
8449.611328 12081.717773 48576.371094 132 201 184
8521.000977 12076.455078 48555.210938 142 209 192
8593.414062 12072.722656 48540.203125 131 201 182
8665.665039 12068.827148 48524.542969 119 195 175
8736.761719 12063.405273 48502.742188 92 174 151
8808.958008 12059.581055 48487.367188 60 149 124
8880.041992 12054.312500 48466.183594 61 155 129
8952.094727 12050.435547 48450.593750 60 153 128
9024.502930 12047.097656 48437.175781 61 152 130
9096.166992 12042.829102 48420.011719 62 156 135
9169.068359 12040.253906 48409.660156 52 151 127
9242.393555 12038.275391 48401.703125 47 149 125
9315.963867 12036.642578 48395.136719 86 193 167
9391.929688 12038.107422 48401.027344 111 220 191
9469.861328 12042.047852 48416.871094 126 231 204
9548.541992 12046.873047 48436.273438 102 205 178
9636.343750 12063.041016 48501.277344 86 185 164
9725.583984 12080.745117 48572.457031 84 182 161
9819.233398 12103.613281 48664.406250 86 183 163
9913.801758 12127.258789 48759.472656 71 166 145
10000.583008 12141.091797 48815.089844 74 167 146
10115.101562 12188.139648 49004.257812 74 164 144
10225.736328 12229.843750 49171.933594 70 155 136
10363.186523 12302.766602 49465.128906 75 153 137
10485.821289 12357.162109 49683.835938 80 152 138
10577.418945 12374.455078 49753.367188 81 145 135
11049.331055 12833.213867 51597.871094 71 123 121
3650.310791 12181.219727 48673.863281 59 139 111
3718.762695 12158.979492 48584.996094 70 158 130
3788.415771 12141.469727 48515.031250 72 166 138
3856.699707 12120.336914 48430.585938 84 177 153
3927.990723 12109.278320 48386.398438 111 203 180
3998.410889 12096.000000 48333.339844 107 201 178
4070.237305 12087.384766 48298.914062 85 183 160
4142.997559 12081.801758 48276.609375 72 168 146
4215.272461 12075.027344 48249.539062 69 165 145
4288.844238 12072.139648 48238.000000 59 158 138
4362.103516 12068.484375 48223.394531 48 148 128
4435.625977 12065.668945 48212.140625 51 149 133
4509.580566 12064.102539 48205.886719 57 151 137
4583.650879 12062.891602 48201.046875 65 159 143
4658.235352 12063.049805 48201.679688 46 143 125
4733.260742 12064.329102 48206.789062 46 141 126
4808.382324 12065.806641 48212.695312 93 182 171
4883.855469 12068.111328 48221.902344 103 186 179
4959.728516 12071.318359 48234.718750 114 193 190
5035.385742 12073.913086 48245.085938 125 203 199
5111.223633 12076.859375 48256.859375 130 203 201
5186.539062 12078.503906 48263.429688 127 199 197
5261.659668 12079.654297 48268.027344 132 200 197
5336.993652 12081.254883 48274.421875 137 202 199
5412.034668 12082.158203 48278.035156 152 216 213
5487.227539 12083.371094 48282.878906 124 187 184
5562.142578 12083.948242 48285.183594 132 194 193
5637.208984 12084.834961 48288.726562 128 192 191
5712.716309 12086.629883 48295.898438 112 178 176
5788.170898 12088.269531 48302.453125 106 174 173
5864.568359 12091.810547 48316.601562 104 174 175
5940.915039 12095.160156 48329.984375 119 189 193
6017.602051 12099.109375 48345.765625 136 202 207
6094.807617 12103.993164 48365.281250 129 193 198
6171.286621 12107.332031 48378.625000 122 191 196
6248.591797 12112.193359 48398.046875 115 184 190
6325.299805 12115.794922 48412.437500 157 219 226
6401.984375 12119.268555 48426.316406 174 231 240
6479.315430 12123.870117 48444.707031 165 223 232
6555.856445 12126.907227 48456.839844 134 197 203
6632.850586 12130.702148 48472.003906 108 175 182
6708.939453 12132.776367 48480.292969 112 181 190
6785.103027 12134.939453 48488.933594 125 199 206
6862.252441 12138.797852 48504.351562 145 222 225
6939.022461 12141.909180 48516.785156 156 223 222
7017.200684 12147.391602 48538.691406 158 211 209
7095.137695 12152.343750 48558.480469 174 219 217
7173.117676 12157.266602 48578.148438 189 232 230
7251.479980 12162.728516 48599.976562 188 236 229
7328.490723 12165.833984 48612.386719 167 221 208
7405.721191 12169.238281 48625.988281 155 214 201
7482.012207 12171.045898 48633.210938 141 202 192
7557.859863 12172.102539 48637.433594 114 181 174
7634.245117 12173.996094 48645.000000 107 179 177
7710.233398 12175.226562 48649.914062 105 179 177
7785.835938 12175.829102 48652.324219 118 188 189
7860.861328 12175.527344 48651.117188 105 177 175
7935.427734 12174.526367 48647.117188 100 176 168
8009.868652 12173.352539 48642.429688 99 176 166
8084.407227 12172.348633 48638.414062 90 165 154
8158.819336 12171.174805 48633.726562 102 173 161
8233.978516 12171.125977 48633.531250 112 180 166
8308.553711 12170.223633 48629.925781 113 179 163
8381.536133 12167.024414 48617.140625 114 178 159
8454.238281 12163.479492 48602.976562 113 177 158
8525.578125 12158.052734 48581.292969 116 179 161
8597.774414 12153.933594 48564.832031 118 183 164
8669.740234 12149.560547 48547.359375 104 175 154
8740.588867 12143.711914 48523.988281 80 159 135
8812.671875 12139.663086 48507.812500 66 153 128
8883.747070 12134.306641 48486.406250 63 155 130
8955.914062 12130.516602 48471.261719 60 154 130
9028.540039 12127.408203 48458.843750 59 151 130
9100.394531 12123.322266 48442.515625 61 155 136
9173.430664 12120.864258 48432.695312 57 155 134
9247.231445 12119.448242 48427.039062 65 168 145
9321.340820 12118.456055 48423.070312 81 187 164
9398.042969 12120.824219 48432.531250 116 224 200
9477.066406 12126.124023 48453.710938 124 228 205
9556.669922 12132.078125 48477.503906 95 198 174
9645.026367 12148.963867 48544.976562 86 185 161
9733.493164 12165.727539 48611.960938 82 179 159
9827.025391 12188.517578 48703.023438 82 178 158
9923.679688 12214.802734 48808.054688 71 166 146
10013.400391 12232.221680 48877.656250 72 164 146
10132.908203 12285.494141 49090.523438 73 162 146
10248.532227 12333.300781 49281.550781 70 155 142
10390.376953 12411.723633 49594.914062 75 155 145
10520.180664 12474.719727 49846.636719 73 147 143
10617.619141 12498.700195 49942.457031 76 141 145
3518.778320 12322.926758 48937.769531 61 130 101
3587.799316 12300.160156 48847.351562 59 132 104
3722.158936 12245.268555 48629.367188 66 154 126
3791.483398 12226.370117 48554.312500 71 164 136
3859.425537 12203.833984 48464.816406 78 169 145
3930.543945 12192.008789 48417.851562 105 195 173
4000.705322 12177.710938 48361.074219 102 196 174
4072.356689 12168.391602 48324.066406 90 187 164
4144.964844 12162.214844 48299.535156 78 174 153
4217.015137 12154.648438 48269.488281 59 154 134
4290.453125 12151.275391 48256.093750 52 150 131
4363.515625 12146.973633 48239.007812 47 147 129
4436.909180 12143.720703 48226.089844 40 138 121
4510.744141 12141.765625 48218.324219 53 148 135
4584.629883 12140.006836 48211.339844 65 159 145
4659.090820 12139.803711 48210.531250 47 140 125
4733.921875 12140.556641 48213.523438 50 140 125
4808.876465 12141.595703 48217.652344 92 177 164
4884.213867 12143.557617 48225.441406 122 202 191
4959.953125 12146.443359 48236.902344 130 204 194
5035.563477 12148.932617 48246.789062 139 211 201
5111.391602 12151.868164 48258.445312 154 222 213
5186.761719 12153.644531 48265.500000 150 216 207
5261.940430 12154.928711 48270.601562 149 213 207
5337.250488 12156.476562 48276.746094 162 227 221
5412.221191 12157.218750 48279.695312 152 218 213
5487.350586 12158.292969 48283.960938 125 194 189
5562.251953 12158.839844 48286.132812 124 193 191
5637.312012 12159.714844 48289.605469 114 185 184
5712.782715 12161.441406 48296.460938 100 173 173
5788.199219 12163.008789 48302.687500 105 180 180
5864.577637 12166.532227 48316.679688 105 177 178
5940.943359 12169.939453 48330.210938 123 190 194
6017.654785 12173.963867 48346.191406 128 190 194
6094.853516 12178.861328 48365.644531 131 192 195
6171.308594 12182.172852 48378.792969 129 191 196
6248.571777 12186.981445 48397.890625 123 186 191
6325.232910 12190.516602 48411.925781 124 181 189
6401.883789 12193.948242 48425.554688 125 179 189
6479.211426 12198.575195 48443.929688 121 182 191
6555.778320 12201.679688 48456.261719 116 183 191
6632.836426 12205.619141 48471.906250 104 176 185
6708.978516 12207.802734 48480.578125 102 178 190
6785.232422 12210.139648 48489.859375 99 184 193
6862.527832 12214.279297 48506.296875 118 211 215
6939.429688 12217.636719 48519.628906 150 230 233
7017.826660 12223.526367 48543.019531 105 167 169
7095.944336 12228.809570 48564.003906 80 135 136
7174.124023 12234.088867 48584.968750 110 163 166
7252.750488 12240.012695 48608.492188 117 170 168
7329.947754 12243.426758 48622.050781 112 170 161
7407.414551 12247.217773 48637.105469 128 186 175
7483.860840 12249.262695 48645.226562 133 189 183
7559.848633 12250.523438 48650.230469 117 177 173
7636.446777 12252.738281 48659.031250 108 175 172
7712.593750 12254.194336 48664.808594 113 181 179
7788.369141 12255.036133 48668.152344 102 170 167
7863.501953 12254.860352 48667.457031 109 176 173
7938.129883 12253.910156 48663.679688 112 181 174
8012.612793 12252.754883 48659.093750 105 175 164
8087.144043 12251.694336 48654.878906 109 175 165
8161.688965 12250.673828 48650.828125 107 170 160
8237.082031 12250.932617 48651.859375 100 164 151
8311.933594 12250.389648 48649.703125 97 162 146
8385.200195 12247.542969 48638.394531 95 161 143
8458.089844 12244.199219 48625.117188 95 160 141
8529.424805 12238.683594 48603.214844 95 160 141
8601.419922 12234.204102 48585.425781 95 160 140
8673.087891 12229.339844 48566.109375 88 158 136
8743.673828 12223.046875 48541.113281 79 156 135
8815.619141 12218.746094 48524.035156 70 154 130
8886.638672 12213.244141 48502.187500 63 153 127
8958.862305 12209.476562 48487.222656 61 154 130
9031.652344 12206.536133 48475.542969 59 151 130
9103.627930 12202.552734 48459.730469 43 137 118
9176.744141 12200.151367 48450.191406 65 163 143
9251.032227 12199.333008 48446.941406 66 169 148
9325.723633 12199.055664 48445.839844 78 183 162
9403.278320 12202.498047 48459.511719 108 215 192
9483.604492 12209.455078 48487.136719 119 224 201
9564.336914 12216.822266 48516.394531 94 197 173
9653.426758 12234.666016 48587.257812 90 189 166
9741.057617 12250.399414 48649.742188 81 177 155
9834.541016 12273.195312 48740.269531 77 171 150
9933.816406 12302.818359 48857.910156 75 167 147
10027.138672 12324.676758 48944.714844 73 162 145
10152.535156 12385.335938 49185.609375 72 160 144
10272.708984 12438.769531 49397.808594 74 158 147
10420.218750 12524.270508 49737.355469 77 153 149
10564.004883 12604.074219 50054.281250 68 139 141
10675.687500 12644.694336 50215.593750 84 149 159
11122.095703 13078.326172 51937.667969 76 133 148
13817.040039 15902.827148 63154.546875 100 129 170
14880.608398 17006.765625 67538.593750 94 121 166
16243.294922 18434.792969 73209.679688 85 114 160
17194.300781 19379.066406 76959.656250 97 126 172
17846.052734 19975.400391 79327.867188 94 122 166
18639.121094 20720.691406 82287.617188 94 120 161
19000.015625 20978.697266 83312.234375 95 115 152
3591.415039 12388.154297 48896.582031 63 135 108
3725.239502 12330.651367 48669.613281 52 139 111
3794.452637 12311.073242 48592.335938 71 163 135
3862.049316 12287.112305 48497.765625 77 168 145
3932.891602 12274.193359 48446.769531 101 190 168
4002.731445 12258.686523 48385.566406 103 195 173
4074.218506 12248.702148 48346.156250 101 196 175
4146.731934 12242.106445 48320.125000 89 183 162
4218.638184 12233.983398 48288.062500 61 155 135
4292.019531 12230.347656 48273.710938 52 149 130
4364.940430 12225.544922 48254.757812 51 150 132
4438.196777 12221.829102 48240.085938 44 142 125
4511.882812 12219.398438 48230.492188 51 146 133
4585.583496 12217.085938 48221.367188 57 150 136
4659.932617 12216.548828 48219.246094 49 138 126
4734.576172 12216.786133 48220.183594 53 139 125
4809.361328 12217.376953 48222.515625 84 165 150
4884.551270 12218.961914 48228.769531 108 184 169
4960.134766 12221.469727 48238.667969 105 176 161
5035.675781 12223.799805 48247.867188 115 181 165
5111.506836 12226.754883 48259.531250 116 179 163
5186.967285 12228.752930 48267.414062 112 175 160
5262.277832 12230.343750 48273.695312 111 175 161
5337.679199 12232.098633 48280.625000 105 172 160
5412.684082 12232.910156 48283.828125 103 172 163
5487.858398 12234.076172 48288.429688 94 167 160
5562.792969 12234.685547 48290.832031 94 169 164
5637.878418 12235.604492 48294.460938 105 181 180
5713.372070 12237.374023 48301.445312 95 174 175
5788.797852 12238.955078 48307.683594 105 181 183
5865.239746 12242.616211 48322.132812 109 180 182
5941.705566 12246.234375 48336.417969 115 179 183
6018.525391 12250.482422 48353.183594 122 181 185
6095.815918 12255.573242 48373.281250 125 184 187
6172.313965 12258.967773 48386.675781 122 181 186
6249.605469 12263.837891 48405.898438 122 181 187
6326.265137 12267.366211 48419.824219 118 171 182
6402.911133 12270.787109 48433.328125 112 166 176
6480.267090 12275.472656 48451.820312 113 173 182
6556.873047 12278.647461 48464.355469 95 164 172
6633.995117 12282.706055 48480.371094 87 163 171
6710.180176 12284.958008 48489.261719 83 161 172
6786.503418 12287.411133 48498.941406 54 140 150
6863.918457 12291.764648 48516.128906 62 155 161
6940.933594 12295.316406 48530.144531 89 173 178
7019.523926 12301.552734 48554.761719 112 182 188
7097.818359 12307.143555 48576.828125 121 184 189
7176.193359 12312.755859 48598.980469 120 182 187
7255.062500 12319.090820 48623.984375 118 179 180
7332.431152 12322.774414 48638.523438 114 173 172
7410.109863 12326.898438 48654.800781 135 191 187
7486.685059 12329.123047 48663.582031 146 201 200
7562.800293 12330.552734 48669.226562 131 189 189
7639.628906 12333.106445 48679.304688 121 184 185
7715.979492 12334.846680 48686.171875 107 175 174
7791.916992 12335.897461 48690.320312 105 176 174
7867.071777 12335.702148 48689.550781 101 173 169
7941.702148 12334.696289 48685.578125 98 172 165
8016.296875 12333.653320 48681.464844 86 159 151
8090.969727 12332.750000 48677.898438 84 155 145
8165.741211 12332.011719 48674.984375 81 152 140
8241.340820 12332.527344 48677.019531 83 155 141
8316.408203 12332.242188 48675.894531 83 159 142
8389.937500 12329.703125 48665.871094 81 158 140
8463.015625 12326.551758 48653.433594 78 155 138
8534.480469 12321.127930 48632.023438 78 153 136
8606.496094 12316.585938 48614.097656 81 153 136
8678.124023 12311.571289 48594.304688 77 152 132
8748.676758 12305.132812 48568.894531 80 157 136
8820.607422 12300.724609 48551.492188 72 152 129
8891.682617 12295.207031 48529.714844 65 151 127
8964.006836 12291.495117 48515.066406 60 151 126
9036.978516 12288.725586 48504.132812 57 151 128
9109.151367 12284.924805 48489.128906 44 141 119
9182.424805 12282.657227 48480.179688 58 161 138
9257.311523 12282.567383 48479.824219 71 176 153
9332.595703 12283.000977 48481.535156 76 182 160
9411.147461 12287.695312 48500.066406 105 211 188
9493.218750 12296.875000 48536.296875 111 215 193
9575.583008 12306.285156 48573.441406 91 192 169
9666.198242 12326.071289 48651.539062 91 188 164
9753.590820 12341.474609 48712.335938 77 171 147
9847.740234 12365.125977 48805.687500 78 171 147
9950.564453 12399.226562 48940.281250 79 169 147
10048.161133 12426.347656 49047.332031 70 155 137
10181.035156 12496.362305 49323.683594 79 161 147
10305.456055 12555.038086 49555.277344 78 156 147
10461.764648 12651.410156 49935.660156 75 146 143
10634.334961 12765.890625 50387.519531 66 133 135
10778.460938 12844.808594 50699.011719 90 152 159
11217.098633 13271.025391 52381.308594 121 176 189
11774.509766 13830.646484 54590.160156 154 201 221
12536.498047 14620.893555 57709.296875 137 179 203
13576.180664 15721.547852 62053.628906 140 175 203
14441.580078 16606.347656 65545.968750 162 193 224
15551.118164 17757.593750 70089.992188 161 190 220
16337.625977 18526.597656 73125.281250 145 174 204
16927.707031 19063.814453 75245.703125 154 182 216
17677.667969 19772.527344 78043.023438 168 195 230
18094.189453 20101.203125 79340.320312 157 181 213
18637.902344 20565.802734 81174.117188 145 165 193
3592.969971 12469.149414 48917.750000 59 131 103
3795.723145 12390.348633 48608.609375 68 158 131
3863.154297 12365.630859 48511.640625 75 165 140
3933.772217 12351.861328 48457.621094 86 174 151
4003.404541 12335.569336 48393.703125 104 194 173
4074.827393 12325.291016 48353.382812 111 205 184
4147.347656 12318.643555 48327.300781 87 182 161
4219.259277 12310.455078 48295.175781 71 165 145
4292.681641 12306.881836 48281.160156 50 146 125
4365.584961 12301.967773 48261.882812 34 134 115
4438.773926 12298.011719 48246.359375 54 152 135
4512.362305 12295.273438 48235.621094 54 147 132
4585.966797 12292.668945 48225.402344 66 158 145
4660.262695 12291.969727 48222.660156 85 174 162
4734.797363 12291.913086 48222.437500 43 128 115
4809.483398 12292.244141 48223.738281 77 158 142
4884.564941 12293.562500 48228.910156 80 157 138
4959.991699 12295.696289 48237.277344 95 166 147
5035.416016 12297.759766 48245.375000 95 162 144
5111.206055 12300.644531 48256.687500 95 161 140
5186.730957 12302.816406 48265.210938 95 160 142
5262.166992 12304.720703 48272.679688 92 161 143
5337.689941 12306.770508 48280.722656 90 160 147
5412.780273 12307.779297 48284.683594 96 169 157
5488.037598 12309.136719 48290.007812 88 161 154
5563.003906 12309.812500 48292.660156 87 160 158
5638.103516 12310.763672 48296.386719 105 178 178
5713.631348 12312.611328 48303.636719 97 172 175
5789.079102 12314.240234 48310.031250 107 179 184
5865.597168 12318.076172 48325.078125 109 173 179
5942.162109 12321.913086 48340.128906 114 170 179
6019.087891 12326.392578 48357.703125 126 184 192
6096.485352 12331.716797 48378.593750 127 187 193
6173.043457 12335.236328 48392.394531 121 180 188
6250.393555 12340.233398 48412.000000 126 183 194
6327.078125 12343.813477 48426.046875 139 194 206
6403.732422 12347.251953 48439.539062 136 189 200
6481.112305 12351.994141 48458.140625 128 184 194
6557.738770 12355.208008 48470.750000 129 193 200
6634.875977 12359.301758 48486.808594 108 178 184
6711.062988 12361.552734 48495.640625 99 173 180
6787.393555 12364.015625 48505.300781 127 206 212
6864.833008 12368.422852 48522.593750 114 195 202
6941.875977 12372.028320 48536.734375 102 182 189
7020.528320 12378.393555 48561.710938 96 174 181
7098.886719 12384.111328 48584.140625 93 168 174
7177.335938 12389.866211 48606.718750 102 176 182
7256.292969 12396.370117 48632.230469 108 178 183
7333.726562 12400.164062 48647.117188 118 179 183
7411.482910 12404.421875 48663.816406 131 186 192
7488.098633 12406.703125 48672.769531 138 191 196
7564.270996 12408.212891 48678.691406 138 192 198
7641.239258 12410.984375 48689.566406 126 189 192
7717.735352 12412.943359 48697.250000 112 181 182
7793.764160 12414.119141 48701.863281 90 165 164
7868.863281 12413.806641 48700.636719 92 172 168
7943.458008 12412.711914 48696.343750 100 179 174
8018.189941 12411.849609 48692.960938 85 164 158
8093.073730 12411.237305 48690.558594 84 163 155
8168.070312 12410.806641 48688.867188 79 159 149
8243.783203 12411.461914 48691.437500 69 153 139
8318.945312 12411.284180 48690.742188 71 158 143
8392.622070 12408.915039 48681.445312 67 155 141
8465.814453 12405.875977 48669.523438 67 154 140
8537.455078 12400.636719 48648.972656 72 157 143
8609.640625 12396.274414 48631.855469 76 158 143
8681.419922 12391.408203 48612.765625 76 156 139
8752.111328 12385.084961 48587.957031 72 152 133
8824.104492 12380.695312 48570.738281 74 154 133
8895.263672 12375.220703 48549.261719 65 149 125
8967.642578 12371.519531 48534.742188 61 151 125
9040.695312 12368.802734 48524.082031 63 158 133
9112.987305 12365.097656 48509.546875 47 147 122
9186.367188 12362.916992 48500.992188 57 161 137
9261.630859 12363.288086 48502.445312 67 173 150
9337.234375 12364.100586 48505.636719 87 194 170
9416.435547 12369.627930 48527.320312 109 214 191
9499.774414 12380.459961 48569.812500 102 205 181
9583.387695 12391.475586 48613.031250 87 187 164
9675.390625 12413.084961 48697.804688 84 180 156
9763.048828 12428.829102 48759.570312 75 168 144
9858.054688 12453.613281 48856.804688 76 167 144
9963.516602 12491.130859 49003.988281 74 162 141
10063.983398 12521.865234 49124.562500 71 155 138
10202.042969 12598.563477 49425.457031 83 163 149
10328.144531 12659.463867 49664.378906 77 152 141
10491.534180 12764.834961 50077.753906 77 147 142
10691.859375 12913.269531 50660.082031 70 133 134
10868.997070 13031.745117 51124.871094 90 148 152
11307.373047 13459.467773 52802.875000 128 178 187
11827.566406 13977.750000 54836.144531 165 209 224
12508.943359 14677.785156 57582.457031 181 219 236
13423.065430 15639.094727 61353.773438 200 232 252
14166.433594 16389.367188 64297.167969 215 242 255
15092.685547 17339.289062 68023.804688 223 248 255
15715.535156 17929.910156 70340.875000 218 242 255
16202.367188 18358.296875 72021.484375 214 239 255
16891.904297 19008.945312 74574.046875 181 208 231
17355.652344 19398.408203 76101.945312 153 176 200
17990.980469 19973.109375 78356.562500 184 202 224
18529.201172 20433.039062 80160.906250 136 149 167
3799.240479 12477.052734 48653.652344 66 153 127
3866.479980 12451.343750 48553.402344 71 159 134
3936.702148 12436.037109 48493.710938 82 171 147
4005.892822 12418.104492 48423.785156 91 184 161
4077.098633 12406.960938 48380.332031 106 201 178
4149.497559 12399.786133 48352.351562 95 190 166
4221.261230 12390.999023 48318.089844 66 161 140
4294.657227 12387.226562 48303.378906 49 147 127
4367.458496 12381.897461 48282.597656 47 143 124
4440.539551 12377.525391 48265.550781 60 154 136
4514.011230 12374.370117 48253.246094 53 147 129
4587.468750 12371.279297 48241.191406 56 148 134
4661.679688 12370.286133 48237.320312 49 140 127
4736.065430 12369.782227 48235.355469 52 140 126
4810.628906 12369.749023 48235.226562 68 151 135
4885.594238 12370.734375 48239.066406 73 150 132
4960.857422 12372.433594 48245.695312 83 155 135
5036.176270 12374.220703 48252.660156 81 150 130
5111.905762 12376.948242 48263.296875 84 154 134
5187.440430 12379.131836 48271.812500 86 157 138
5262.969238 12381.241211 48280.039062 79 153 137
5338.637695 12383.614258 48289.292969 83 159 146
5413.880371 12384.949219 48294.500000 81 155 147
5489.331055 12386.715820 48301.386719 97 168 164
5564.434082 12387.662109 48305.074219 105 175 174
5639.650879 12388.833008 48309.644531 116 184 186
5715.314941 12390.942383 48317.867188 131 199 203
5790.844727 12392.710938 48324.765625 115 180 185
5867.463867 12396.735352 48340.457031 146 203 211
5944.114258 12400.723633 48356.011719 160 213 222
6021.106445 12405.317383 48373.921875 131 188 196
6098.563965 12410.745117 48395.085938 127 188 195
6175.149902 12414.289062 48408.910156 116 176 186
6252.501465 12419.269531 48428.328125 116 175 185
6329.171875 12422.793945 48442.070312 143 200 210
6405.798828 12426.153320 48455.171875 147 201 211
6483.151367 12430.825195 48473.386719 150 206 213
6559.770508 12434.000000 48485.769531 158 218 223
6636.900879 12438.061523 48501.605469 101 168 170
6713.088379 12440.284180 48510.273438 82 153 156
6789.439941 12442.758789 48519.925781 125 199 203
6866.922363 12447.229492 48537.359375 94 170 175
6944.024902 12450.922852 48551.761719 100 178 184
7022.785645 12457.478516 48577.324219 94 172 182
7101.248535 12463.372070 48600.304688 86 166 172
7179.834473 12469.355469 48623.636719 89 170 173
7258.972656 12476.165039 48650.191406 105 183 185
7336.559570 12480.196289 48665.910156 121 187 191
7414.525391 12484.783203 48683.796875 122 182 187
7491.345703 12487.368164 48693.878906 171 227 231
7567.660156 12489.067383 48700.500000 138 196 199
7644.649414 12491.834961 48711.296875 125 188 190
7721.051270 12493.599609 48718.171875 123 191 192
7797.108887 12494.776367 48722.765625 64 137 135
7872.339355 12494.620117 48722.152344 72 150 148
7947.189941 12493.868164 48719.222656 111 190 188
8022.294922 12493.526367 48717.890625 90 169 168
8097.525879 12493.385742 48717.339844 76 156 156
8172.977539 12493.584961 48718.117188 77 159 158
8249.021484 12494.677734 48722.378906 62 151 148
8324.499023 12494.900391 48723.250000 55 148 144
8398.587891 12493.053711 48716.046875 58 151 144
8472.066406 12490.339844 48705.464844 64 154 146
8544.109375 12485.576172 48686.886719 66 155 144
8616.631836 12481.590820 48671.347656 64 151 139
8688.718750 12477.048828 48653.636719 69 153 138
8759.756836 12471.090820 48630.402344 72 155 138
8831.972656 12466.896484 48614.046875 67 149 132
8903.321289 12461.560547 48593.238281 63 149 128
8975.744141 12457.803711 48578.589844 61 152 129
9048.854492 12455.055664 48567.875000 61 157 135
9121.326172 12451.481445 48553.937500 53 151 129
9194.914062 12449.475586 48546.117188 58 161 139
9270.790039 12450.576172 48550.406250 73 176 155
9346.917969 12451.996094 48555.941406 80 186 163
9427.107422 12458.758789 48582.312500 110 213 191
9512.258789 12471.921875 48633.644531 104 206 182
9597.621094 12485.151367 48685.230469 82 180 156
9691.731445 12509.466797 48780.050781 83 177 155
9779.952148 12525.865234 48843.992188 81 172 150
9876.527344 12552.627930 48948.355469 80 169 149
9986.215820 12595.524414 49115.628906 76 163 143
10091.176758 12631.856445 49257.300781 72 156 138
10237.689453 12719.266602 49598.152344 79 161 146
10366.134766 12783.098633 49847.062500 73 149 136
10541.767578 12903.747070 50317.523438 75 144 135
11019.531250 13292.370117 51832.941406 79 131 132
11475.372070 13742.291992 53587.386719 153 195 200
11963.476562 14224.124023 55466.269531 178 213 220
12559.112305 14826.037109 57813.402344 198 224 234
13337.829102 15634.042969 60964.179688 206 227 237
13945.936523 16232.130859 63296.394531 197 215 223
14687.348633 16975.962891 66196.929688 205 220 229
15172.584961 17415.451172 67910.695312 213 226 235
15572.849609 17752.039062 69223.195312 208 225 234
16175.866211 18313.578125 71412.890625 197 218 228
16629.537109 18699.568359 72918.039062 187 205 217
17274.314453 19293.804688 75235.242188 188 203 214
17834.654297 19786.417969 77156.156250 173 185 192
18369.363281 20244.236328 78941.398438 114 122 130
3803.061768 12564.900391 48702.585938 66 148 123
3870.240234 12538.593750 48600.621094 65 150 125
3940.125732 12521.891602 48535.882812 80 168 144
4008.880859 12502.290039 48459.902344 82 174 148
4079.826416 12490.112305 48412.703125 96 191 166
4152.014648 12482.109375 48381.679688 105 200 176
4223.533203 12472.412109 48344.093750 72 167 145
4296.833984 12468.223633 48327.859375 50 146 125
4369.473633 12462.293945 48304.875000 59 154 134
4442.439453 12457.477539 48286.203125 57 150 131
4515.810547 12453.936523 48272.480469 58 151 133
4589.116211 12450.333984 48258.519531 57 149 132
4663.239258 12449.029297 48253.460938 50 141 126
4737.507324 12448.145508 48250.035156 61 148 132
4811.996582 12447.862305 48248.933594 60 144 128
4886.912109 12448.672852 48252.082031 65 148 132
4962.105957 12450.159180 48257.839844 73 152 136
5037.396484 12451.838867 48264.351562 75 155 140
5113.089355 12454.450195 48274.472656 86 166 152
5188.575195 12456.488281 48282.375000 82 162 150
5264.118164 12458.605469 48290.578125 77 159 150
5339.901367 12461.222656 48300.722656 78 159 153
5415.311523 12462.910156 48307.261719 71 149 145
5490.998047 12465.178711 48316.058594 74 147 145
5566.297363 12466.518555 48321.250000 109 181 177
5641.687988 12468.025391 48327.093750 112 181 180
5717.529785 12470.476562 48336.593750 127 192 191
5793.156738 12472.403320 48344.058594 118 180 178
5869.820312 12476.481445 48359.867188 145 204 203
5946.456055 12480.400391 48375.058594 161 218 217
6023.374512 12484.808594 48392.144531 129 190 190
6100.741211 12490.025391 48412.363281 130 195 195
6177.258301 12493.397461 48425.437500 109 175 175
6254.500000 12498.136719 48443.804688 99 162 164
6331.093750 12501.484375 48456.781250 138 197 200
6407.652344 12504.685547 48469.187500 139 195 199
6484.916016 12509.172852 48486.582031 140 198 200
6561.492188 12512.246094 48498.496094 148 210 210
6638.569824 12516.196289 48513.804688 111 178 177
6714.726562 12518.339844 48522.113281 86 157 156
6791.079102 12520.797852 48531.640625 122 195 195
6868.568848 12525.275391 48548.996094 105 179 183
6945.702148 12529.013672 48563.488281 105 178 185
7024.536133 12535.707031 48589.429688 101 176 183
7103.066406 12541.721680 48612.746094 84 163 168
7181.761230 12547.898438 48636.687500 78 161 162
7261.060059 12554.992188 48664.183594 109 192 188
7338.790527 12559.255859 48680.707031 114 190 185
7417.033691 12564.301758 48700.265625 115 184 183
7494.231934 12567.493164 48712.636719 121 186 185
7570.786621 12569.553711 48720.621094 117 179 176
7647.627441 12572.042969 48730.273438 125 190 187
7723.618164 12573.100586 48734.371094 121 190 187
7799.535156 12574.018555 48737.929688 86 157 156
7875.007812 12574.208984 48738.667969 84 157 157
7950.302246 12574.115234 48738.300781 106 180 183
8025.833496 12574.392578 48739.378906 100 175 182
8101.364258 12574.665039 48740.433594 81 159 166
8177.271484 12575.511719 48743.714844 74 156 165
8253.694336 12577.127930 48749.980469 69 158 168
8329.545898 12577.851562 48752.789062 62 156 164
8404.085938 12576.600586 48747.937500 62 155 158
8477.862305 12574.240234 48738.789062 67 158 155
8550.310547 12569.966797 48722.222656 70 159 150
8623.155273 12566.347656 48708.195312 75 162 153
8695.534180 12562.117188 48691.800781 76 162 150
8766.936523 12556.560547 48670.261719 77 162 148
8839.399414 12552.604492 48654.925781 63 149 134
8910.975586 12547.467773 48635.015625 67 155 137
8983.453125 12543.674805 48620.316406 57 148 129
9056.649414 12540.939453 48609.714844 61 158 139
9129.394531 12537.630859 48596.886719 60 158 138
9203.295898 12535.949219 48590.371094 61 163 142
9279.812500 12537.830078 48597.660156 80 183 162
9356.457031 12539.851562 48605.496094 79 180 158
9437.467773 12547.646484 48635.707031 94 194 173
9524.041992 12562.655273 48693.886719 96 196 173
9610.716797 12577.561523 48751.664062 79 175 152
9706.479492 12604.037109 48854.281250 85 177 156
9795.272461 12621.122070 48920.503906 87 175 157
9893.155273 12649.567383 49030.761719 84 169 153
10005.977539 12696.537109 49212.820312 81 168 150
10114.160156 12736.955078 49369.484375 74 158 139
10267.208008 12832.844727 49741.160156 74 157 139
10396.714844 12898.104492 49994.113281 68 145 130
10582.894531 13032.188477 50513.835938 74 145 131
11631.851562 14013.664062 54318.113281 102 139 138
12106.870117 14481.395508 56131.082031 133 158 159
12652.493164 15026.323242 58243.261719 141 157 159
13353.716797 15747.034180 61036.796875 157 169 171
13882.823242 16256.090820 63009.945312 167 175 176
14531.096680 16896.619141 65492.687500 168 174 174
14971.176758 17287.873047 67009.218750 174 181 182
15342.717773 17595.146484 68200.234375 189 201 199
15876.907227 18083.480469 70093.054688 201 216 214
16273.901367 18409.988281 71358.632812 212 225 226
16848.826172 18932.029297 73382.101562 221 233 233
17355.902344 19371.359375 75084.984375 187 196 198
17861.056641 19802.722656 76756.984375 166 171 173
18477.873047 20351.375000 78883.601562 103 109 109
3807.433594 12654.729492 48758.574219 67 145 120
3874.511230 12627.654297 48654.253906 62 145 119
3944.023926 12609.395508 48583.902344 76 162 137
4012.302002 12587.946289 48501.257812 79 169 145
4082.965576 12574.630859 48449.953125 95 189 164
4154.934082 12565.741211 48415.703125 101 196 173
4226.188965 12555.045898 48374.496094 76 170 149
4299.383789 12550.386719 48356.539062 65 159 138
4371.886719 12543.900391 48331.550781 59 153 134
4444.786133 12538.750977 48311.707031 64 155 137
4518.118164 12534.971680 48297.148438 58 150 133
4591.333496 12530.998047 48281.835938 60 152 135
4665.404785 12529.449219 48275.867188 57 146 129
4739.584473 12528.235352 48271.195312 51 140 122
4814.015137 12527.711914 48269.175781 54 146 128
4888.884766 12528.331055 48271.558594 55 149 134
4964.025879 12529.616211 48276.511719 53 149 138
5039.309570 12531.217773 48282.683594 53 149 141
5114.950195 12533.645508 48292.039062 56 149 146
5190.347168 12535.416992 48298.863281 63 154 156
5265.846191 12537.380859 48306.429688 60 150 152
5341.682129 12540.080078 48316.832031 66 152 155
5417.222168 12542.021484 48324.308594 74 156 157
5493.109863 12544.702148 48334.640625 68 146 144
5568.596191 12546.407227 48341.207031 122 195 192
5644.170898 12548.263672 48348.359375 136 206 201
5720.203125 12551.075195 48359.191406 106 171 163
5795.940918 12553.176758 48367.289062 114 175 166
5872.684570 12557.375000 48383.468750 115 175 167
5949.342773 12561.288086 48398.546875 114 174 167
6026.239746 12565.601562 48415.164062 122 186 179
6103.581055 12570.724609 48434.902344 125 195 189
6180.082520 12574.014648 48447.578125 116 186 180
6257.265625 12578.594727 48465.226562 107 172 169
6333.807617 12581.793945 48477.554688 123 186 184
6410.312012 12584.844727 48489.308594 126 185 184
6487.501465 12589.154297 48505.914062 120 179 177
6564.040039 12592.116211 48517.324219 111 175 172
6641.088867 12595.979492 48532.210938 98 164 160
6717.250488 12598.092773 48540.351562 102 170 167
6793.643066 12600.586914 48549.964844 101 171 169
6871.187012 12605.139648 48567.503906 112 182 182
6948.391113 12608.976562 48582.285156 109 178 181
7027.336426 12615.857422 48608.800781 100 172 174
7105.960938 12622.023438 48632.554688 68 142 144
7184.787109 12628.414062 48657.179688 76 156 154
7264.281250 12635.834961 48685.773438 102 184 178
7342.190430 12640.374023 48703.261719 116 193 188
7420.658203 12645.773438 48724.066406 109 182 176
7498.095215 12649.324219 48737.750000 121 187 183
7574.761719 12651.518555 48746.203125 120 184 179
7651.426270 12653.666992 48754.476562 119 184 178
7727.072754 12654.105469 48756.167969 119 184 179
7802.942383 12654.896484 48759.218750 107 174 172
7878.744141 12655.565430 48761.792969 98 167 166
7954.555664 12656.235352 48764.375000 105 174 175
8030.548340 12657.179688 48768.011719 106 176 180
8106.370605 12657.838867 48770.554688 99 173 179
8182.743164 12659.338867 48776.332031 96 174 180
8259.583008 12661.527344 48784.761719 83 167 172
8335.862305 12662.823242 48789.757812 80 169 173
8410.912109 12662.247070 48787.539062 76 165 165
8485.034180 12660.294922 48780.019531 78 165 161
8557.942383 12656.583984 48765.718750 91 176 168
8631.148438 12653.373047 48753.347656 95 181 172
8703.855469 12649.493164 48738.394531 93 178 167
8775.695312 12644.429688 48718.886719 75 162 148
8848.477539 12640.798828 48704.898438 57 145 129
8920.253906 12635.803711 48685.652344 66 154 137
8992.690430 12631.821289 48670.308594 59 151 133
9065.799805 12628.841797 48658.828125 66 162 143
9138.599609 12625.482422 48645.882812 68 166 147
9212.636719 12623.874023 48639.687500 65 164 144
9289.576172 12626.236328 48648.789062 78 179 158
9366.617188 12628.699219 48658.277344 88 187 167
9448.350586 12637.397461 48691.792969 90 188 168
9536.143555 12653.999023 48755.757812 86 183 162
9623.968750 12670.382812 48818.886719 80 175 153
9721.358398 12699.005859 48929.167969 87 178 159
9810.775391 12716.851562 48997.929688 88 172 156
9910.245117 12747.355469 49115.460938 82 166 150
10026.755859 12799.148438 49315.019531 81 166 149
10138.744141 12844.430664 49489.488281 74 158 139
10299.190430 12949.963867 49896.109375 75 158 140
10430.533203 13017.605469 50156.730469 61 140 121
10627.920898 13166.066406 50728.750000 71 141 126
11799.684570 14301.055664 55101.855469 88 119 114
12281.093750 14777.823242 56938.835938 107 126 124
12802.933594 15296.108398 58935.785156 149 158 156
13456.601562 15963.454102 61507.062500 169 173 169
13927.000977 16405.548828 63210.453125 149 150 146
14511.474609 16974.923828 65404.246094 135 135 128
14932.975586 17347.097656 66838.234375 137 138 128
15288.576172 17638.128906 67959.570312 147 153 142
15754.376953 18051.455078 69552.109375 170 180 168
16078.189453 18297.587891 70500.460938 197 207 197
16557.804688 18716.523438 72114.617188 193 201 191
16991.011719 19077.744141 73506.398438 202 207 201
17443.849609 19456.062500 74964.054688 189 194 188
18014.626953 19960.062500 76905.960938 147 152 148
3812.569824 12747.287109 48824.347656 66 142 116
3879.324219 12718.658203 48714.691406 65 145 120
3948.265869 12698.154297 48636.160156 74 158 131
4015.937988 12674.408203 48545.210938 77 165 139
4086.344727 12660.006836 48490.050781 95 185 161
4158.194824 12650.516602 48453.699219 89 183 158
4229.246094 12638.974609 48409.488281 74 167 145
4302.373535 12633.928711 48390.164062 69 162 141
4374.816895 12627.083008 48363.945312 59 150 132
4447.738281 12621.823242 48343.800781 56 147 129
4521.124512 12618.034180 48329.285156 53 144 127
4594.350098 12613.927734 48313.558594 56 144 128
4668.436035 12612.276367 48307.230469 63 150 133
4742.544434 12610.738281 48301.339844 50 139 121
4816.872559 12609.821289 48297.828125 59 153 138
4891.620117 12610.013672 48298.566406 45 144 131
4966.643555 12610.901367 48301.964844 37 138 131
5041.885742 12612.310547 48307.363281 36 139 135
5117.422852 12614.405273 48315.386719 33 132 134
5192.712402 12615.837891 48320.871094 58 152 158
5268.129883 12617.536133 48327.378906 48 138 145
5343.908203 12620.040039 48336.968750 63 147 153
5419.468262 12621.965820 48344.343750 81 160 166
5495.425781 12624.751953 48355.015625 69 146 148
5571.009766 12626.618164 48362.164062 129 201 201
5646.722656 12628.721680 48370.218750 157 224 223
5722.896484 12631.787109 48381.964844 130 193 192
5798.742188 12634.060547 48390.667969 127 186 185
5875.677734 12638.619141 48408.128906 115 175 173
5952.533691 12642.893555 48424.500000 113 174 174
6029.640137 12647.587891 48442.484375 119 183 182
6107.233887 12653.176758 48463.886719 112 183 182
6183.916016 12656.763672 48477.628906 115 183 184
6261.234863 12661.552734 48495.972656 120 184 187
6337.812988 12664.749023 48508.210938 121 183 185
6414.296875 12667.683594 48519.449219 119 178 180
6491.477051 12671.909180 48535.636719 114 173 172
6568.014160 12674.797852 48546.703125 105 165 163
6645.115234 12678.697266 48561.636719 103 165 161
6721.366699 12680.906250 48570.097656 110 172 168
6797.907227 12683.605469 48580.437500 109 173 169
6875.638672 12688.444336 48598.968750 113 175 172
6953.012207 12692.524414 48614.597656 116 178 175
7032.199707 12699.793945 48642.441406 114 176 175
7111.025391 12706.262695 48667.218750 105 170 170
7190.069824 12712.983398 48692.957031 70 143 140
7269.902344 12720.943359 48723.445312 95 171 166
7348.105469 12725.916992 48742.496094 128 199 197
7426.668457 12731.408203 48763.527344 123 190 186
7503.907227 12734.540039 48775.527344 122 185 182
7580.322754 12736.228516 48781.988281 126 187 183
7656.916016 12738.177734 48789.457031 117 178 173
7732.659668 12738.690430 48791.417969 107 168 163
7808.820312 12739.873047 48795.949219 109 170 165
7884.989746 12741.046875 48800.445312 118 180 176
7961.247559 12742.339844 48805.398438 124 185 182
8037.683594 12743.892578 48811.343750 127 189 186
8113.786133 12744.890625 48815.167969 127 194 190
8190.627930 12747.021484 48823.332031 120 191 186
8267.899414 12749.777344 48833.882812 123 197 191
8344.640625 12751.671875 48841.140625 119 197 190
8420.255859 12751.826172 48841.730469 114 193 185
8494.780273 12750.341797 48836.050781 111 191 183
8568.208984 12747.252930 48824.218750 109 191 182
8641.818359 12744.484375 48813.613281 107 188 178
8714.881836 12740.966797 48800.140625 90 173 160
8787.216797 12736.453125 48782.851562 81 168 152
8860.381836 12733.208008 48770.421875 49 136 120
8932.246094 12728.165039 48751.105469 56 143 128
9004.462891 12723.704102 48734.019531 60 152 134
9077.164062 12719.997070 48719.820312 62 155 137
9149.514648 12715.863281 48703.988281 72 167 148
9223.257812 12713.715820 48695.761719 73 168 150
9300.151367 12715.911133 48704.171875 77 174 155
9377.289062 12718.403320 48713.714844 95 191 171
9459.626953 12727.850586 48749.902344 98 194 174
9548.643555 12746.065430 48819.667969 90 186 164
9637.795898 12764.172852 48889.023438 86 181 157
9737.012695 12795.224609 49007.957031 83 173 153
9826.764648 12813.456055 49077.785156 89 171 156
9928.166992 12846.482422 49204.281250 78 160 145
10050.781250 12906.244141 49433.183594 82 165 149
10169.673828 12960.362305 49640.460938 73 157 139
10338.260742 13076.526367 50085.390625 75 157 138
10467.989258 13142.176758 50336.843750 60 136 118
10673.174805 13300.892578 50944.753906 67 134 118
11037.477539 13654.123047 52297.687500 71 127 114
13597.416016 16226.590820 62150.691406 107 107 102
14465.858398 17022.367188 65198.652344 109 107 96
14839.662109 17341.390625 66420.570312 110 110 97
15555.853516 17930.164062 68675.671875 106 111 94
15823.525391 18115.044922 69383.796875 111 116 102
16238.506836 18464.941406 70723.968750 117 121 107
16631.671875 18785.515625 71951.820312 111 114 104
17599.052734 19615.767578 75131.835938 109 112 105
3815.900146 12833.974609 48866.996094 64 137 110
3882.317871 12803.847656 48752.285156 71 149 123
3950.811768 12781.585938 48667.519531 73 156 128
4018.067383 12756.224609 48570.953125 73 158 132
4088.358887 12741.253906 48513.953125 93 181 156
4160.223633 12731.637695 48477.335938 98 189 164
4231.210938 12719.725586 48431.976562 83 173 151
4304.326660 12714.514648 48412.136719 72 162 142
4376.808105 12707.639648 48385.957031 65 154 136
4449.826172 12702.526367 48366.488281 57 147 129
4523.333496 12698.957031 48352.898438 51 140 123
4596.662109 12695.010742 48337.871094 56 144 127
4670.821777 12693.447266 48331.917969 58 144 130
4744.919922 12691.769531 48325.531250 26 113 100
4819.172363 12690.549805 48320.886719 52 145 134
4893.805664 12690.355469 48320.144531 102 199 191
4968.730957 12690.913086 48322.269531 76 175 170
5043.936035 12692.157227 48327.007812 65 164 164
5119.378418 12693.953125 48333.847656 73 168 172
5194.582031 12695.115234 48338.269531 88 178 184
5269.903809 12696.528320 48343.652344 94 179 185
5345.546875 12698.665039 48351.789062 97 176 182
5421.017578 12700.339844 48358.164062 91 165 170
5496.899902 12702.919922 48367.988281 96 166 173
5572.465332 12704.708008 48374.796875 134 201 208
5648.213379 12706.859375 48382.988281 119 184 191
5724.429199 12709.993164 48394.921875 105 166 175
5800.331055 12712.358398 48403.925781 126 184 194
5877.457520 12717.313477 48422.792969 121 180 190
5954.552246 12722.075195 48440.921875 125 186 195
6031.952148 12727.362305 48461.054688 125 190 198
6109.896484 12733.655273 48485.015625 113 182 188
6186.834961 12737.724609 48500.511719 113 180 186
6264.383301 12742.936523 48520.359375 117 180 186
6341.049805 12746.252930 48532.984375 124 184 188
6417.551270 12749.164062 48544.066406 131 187 190
6494.774902 12753.424805 48560.292969 136 193 192
6571.337402 12756.306641 48571.265625 140 198 194
6648.528809 12760.329102 48586.578125 142 201 195
6724.903320 12762.711914 48595.652344 134 193 187
6801.607910 12765.661133 48606.886719 145 203 195
6879.549805 12770.842773 48626.613281 151 206 199
6957.095703 12775.185547 48643.148438 120 174 166
7036.516113 12782.840820 48672.296875 141 195 189
7115.528320 12789.599609 48698.035156 129 188 183
7194.753906 12796.597656 48724.675781 79 144 141
7274.875977 12805.027344 48756.777344 102 173 170
7353.328613 12810.375977 48777.140625 126 194 191
7431.822266 12815.687500 48797.367188 123 186 182
7508.587402 12817.941406 48805.949219 149 210 205
7584.554688 12818.801758 48809.226562 169 230 223
7661.169922 12820.729492 48816.562500 161 221 214
