ply
		format ascii 1.0
		element vertex 33918
		property float x
		property float y
		property float z
		property uchar red
		property uchar green
		property uchar blue
		end_header
11472.057617 -543.190063 57294.867188 170 244 232
13832.072266 -649.915955 68552.148438 71 138 111
14337.150391 -2072.246826 261168.546875 67 145 115
6202.161621 -871.885315 109885.085938 132 230 198
3855.557129 -527.554260 66488.492188 108 219 184
3023.467529 -402.956146 50785.199219 78 197 158
3010.950928 -391.130463 49294.789062 89 208 172
3258.251221 -412.806335 52026.636719 95 212 178
3340.231689 -412.997101 52050.675781 96 215 179
3420.028076 -412.915192 52040.351562 96 217 181
3496.581055 -412.454437 51982.285156 98 220 182
3571.248047 -411.796936 51899.417969 96 219 183
3646.303955 -411.212189 51825.722656 98 221 183
3721.390137 -410.655914 51755.613281 104 228 188
3799.324951 -410.430786 51727.242188 101 227 187
3875.866211 -410.067535 51681.457031 98 227 186
3953.214355 -409.802582 51648.066406 97 226 184
4030.052979 -409.496338 51609.468750 97 224 180
4104.887207 -409.002258 51547.203125 99 227 186
4180.565918 -408.609589 51497.714844 99 228 190
4253.785156 -407.995667 51420.339844 101 230 191
4328.152832 -407.512421 51359.433594 101 230 191
4402.222168 -407.019012 51297.250000 103 232 193
4474.722168 -406.400513 51219.296875 105 234 196
4549.447266 -406.002075 51169.082031 105 234 196
4621.624512 -405.393799 51092.417969 104 233 195
4694.922363 -404.902588 51030.511719 109 238 200
4768.464844 -404.448364 50973.269531 112 241 202
4840.910645 -403.917450 50906.351562 109 239 199
4915.929688 -403.614777 50868.207031 113 243 201
4989.757324 -403.225342 50819.125000 106 235 194
5065.046387 -402.964233 50786.218750 119 248 207
5140.876465 -402.753510 50759.660156 118 247 206
5215.720703 -402.472992 50724.308594 119 248 209
5291.962402 -402.307098 50703.398438 116 246 206
5367.229004 -402.072998 50673.894531 114 245 205
5443.361816 -401.909546 50653.292969 113 244 204
5519.480957 -401.749786 50633.160156 113 245 205
5594.570801 -401.520599 50604.273438 121 253 213
5670.554688 -401.360962 50584.156250 120 254 214
5745.133301 -401.107605 50552.226562 120 254 214
5820.245605 -400.897827 50525.785156 122 253 215
5895.390137 -400.695770 50500.320312 123 254 217
5969.917969 -400.457642 50470.308594 121 253 213
6045.831055 -400.317383 50452.632812 119 252 212
6121.045898 -400.135010 50429.648438 119 251 212
6197.058105 -400.008728 50413.734375 122 253 213
6273.433105 -399.908752 50401.128906 124 253 214
6349.323242 -399.780640 50384.984375 123 252 213
6426.065430 -399.708649 50375.914062 126 252 214
6502.570312 -399.623810 50365.218750 125 254 215
6579.405273 -399.561005 50357.304688 125 254 215
6656.786133 -399.532440 50353.703125 125 255 215
6734.516113 -399.525238 50352.796875 129 255 218
6812.814941 -399.551575 50356.113281 132 255 220
6891.463867 -399.597595 50361.917969 135 255 222
6969.957520 -399.633728 50366.468750 136 255 222
7048.642578 -399.679871 50372.285156 135 255 224
7127.666504 -399.744049 50380.371094 135 255 224
7206.451660 -399.793549 50386.613281 135 255 227
7285.334961 -399.847412 50393.402344 132 255 228
7363.761719 -399.875336 50396.921875 129 255 223
7442.002441 -399.892670 50399.105469 128 255 223
7520.511230 -399.923889 50403.042969 130 255 224
7598.846191 -399.945374 50405.746094 130 254 222
7676.762207 -399.944519 50405.640625 130 252 220
7754.358887 -399.927277 50403.464844 133 254 220
7831.472168 -399.885681 50398.222656 134 255 223
7908.251465 -399.828003 50390.957031 133 255 224
7985.166992 -399.778259 50384.687500 132 255 221
8061.153809 -399.683441 50372.734375 133 254 219
8137.521484 -399.609161 50363.375000 133 255 218
8213.294922 -399.507355 50350.542969 134 255 220
8287.869141 -399.349701 50330.671875 132 255 223
8362.993164 -399.221191 50314.476562 127 255 225
8436.449219 -399.016205 50288.644531 125 255 224
8510.553711 -398.845306 50267.105469 122 254 223
8584.708008 -398.679840 50246.250000 124 255 223
8658.295898 -398.491302 50222.488281 127 255 223
8733.594727 -398.384094 50208.980469 130 255 220
8807.882812 -398.233124 50189.949219 130 254 218
8882.928711 -398.118744 50175.535156 129 253 217
8958.315430 -398.021484 50163.277344 129 254 220
9033.128906 -397.900635 50148.046875 130 255 219
9109.073242 -397.831268 50139.304688 130 255 219
9184.777344 -397.752625 50129.390625 128 255 215
9259.252930 -397.622559 50113.000000 124 255 215
9337.246094 -397.644440 50115.757812 121 255 216
9422.364258 -397.966919 50156.402344 121 254 213
9510.447266 -398.408325 50212.031250 122 254 213
9598.234375 -398.830292 50265.214844 122 253 214
9670.900391 -398.622192 50238.984375 121 251 215
9755.405273 -398.901520 50274.187500 116 246 214
9744.278320 -395.296936 49819.898438 115 242 212
9699.596680 -390.398346 49202.519531 130 243 221
10348.349609 -413.268768 52084.914062 165 253 243
11328.216797 -448.907227 56576.484375 176 247 239
13498.368164 -530.805847 66898.304688 76 143 117
16105.091797 -1874.198120 293373.718750 59 137 106
6461.229980 -731.316162 114475.062500 133 231 198
3898.498291 -429.487946 67229.007812 111 222 188
3024.381104 -324.535828 50800.546875 78 197 160
3008.145996 -314.623047 49248.867188 93 212 176
3258.767822 -332.421326 52034.886719 90 208 173
3339.828125 -332.482025 52044.386719 94 213 177
3419.397461 -332.394958 52030.757812 98 219 182
3495.817871 -332.012817 51970.941406 96 218 181
3570.566895 -331.492676 51889.519531 95 218 181
3645.800781 -331.039398 51818.566406 95 218 180
3720.747070 -330.580109 51746.671875 104 226 187
3798.409424 -330.376343 51714.777344 100 226 186
3874.756348 -330.068939 51666.660156 102 230 189
3952.095459 -329.856781 51633.449219 103 231 189
4029.018066 -329.618927 51596.218750 101 228 184
4103.921875 -329.228394 51535.082031 102 230 188
4179.655273 -328.917969 51486.496094 100 229 190
4252.960938 -328.431702 51410.378906 101 230 191
4327.393555 -328.048706 51350.421875 100 229 191
4401.520020 -327.656677 51289.062500 100 229 191
4474.084961 -327.164398 51212.003906 102 231 193
4548.837402 -326.846405 51162.226562 103 232 194
4621.065918 -326.361023 51086.246094 105 234 196
4694.419922 -325.970093 51025.054688 110 239 201
4767.993652 -325.607086 50968.234375 112 241 201
4840.436035 -325.179901 50901.363281 109 238 197
4915.414062 -324.933990 50862.871094 118 247 206
4989.184082 -324.617249 50813.289062 111 240 199
5064.427734 -324.404694 50780.015625 119 248 207
5140.210938 -324.232666 50753.089844 119 248 207
5215.000977 -324.004089 50717.312500 118 247 208
5291.203613 -323.868805 50696.132812 117 246 207
5366.427246 -323.678375 50666.324219 118 249 209
5442.528809 -323.545624 50645.542969 119 250 209
5518.621094 -323.416107 50625.273438 119 251 211
5593.676758 -323.230286 50596.183594 121 253 213
5669.631836 -323.100861 50575.925781 122 253 213
5744.174805 -322.895599 50543.792969 120 253 213
5819.257324 -322.725739 50517.207031 122 253 213
5894.375488 -322.562347 50491.632812 121 254 214
5968.876953 -322.369934 50461.507812 124 255 215
6044.769043 -322.256592 50443.769531 122 253 213
6119.956055 -322.109039 50420.671875 121 252 212
6195.937500 -322.006500 50404.621094 124 255 215
6272.284668 -321.925262 50391.902344 127 255 217
6348.152344 -321.821686 50375.695312 127 255 217
6424.882324 -321.763824 50366.636719 127 255 217
6501.374512 -321.695587 50355.957031 129 255 219
6578.196289 -321.645081 50348.050781 126 254 216
6655.567383 -321.622345 50344.488281 125 255 215
6733.292969 -321.617004 50343.652344 129 255 218
6811.584961 -321.638550 50347.027344 131 255 219
6890.235840 -321.676361 50352.945312 133 254 221
6968.736816 -321.706421 50357.648438 134 254 221
7047.422363 -321.744232 50363.566406 135 254 223
7126.432129 -321.795868 50371.648438 134 255 223
7205.188965 -321.835083 50377.789062 134 255 226
7284.048828 -321.877991 50384.507812 133 255 228
7362.467773 -321.900757 50388.066406 129 255 224
7440.698242 -321.914856 50390.273438 127 255 222
7519.180664 -321.939453 50394.125000 128 255 222
7597.484863 -321.955994 50396.714844 129 254 222
7675.362793 -321.954346 50396.457031 129 254 221
7752.928223 -321.939728 50394.167969 132 255 221
7830.016113 -321.905762 50388.851562 133 255 223
7906.775391 -321.859100 50381.546875 131 255 222
7983.682129 -321.819275 50375.316406 132 255 219
8059.656250 -321.743011 50363.378906 133 255 217
8136.000488 -321.682861 50353.960938 134 254 218
8211.758789 -321.600861 50341.125000 134 255 220
8286.333984 -321.474518 50321.347656 132 255 222
8361.467773 -321.372009 50305.304688 129 255 226
8434.930664 -321.207733 50279.589844 126 255 225
8509.010742 -321.069794 50257.996094 123 254 223
8583.149414 -320.936493 50237.128906 123 254 223
8656.755859 -320.785889 50213.554688 126 254 220
8732.084961 -320.701202 50200.296875 129 255 218
8806.442383 -320.582642 50181.742188 130 254 218
8881.540039 -320.492859 50167.687500 129 253 216
8957.005859 -320.417847 50155.945312 128 253 217
9031.950195 -320.325592 50141.503906 128 255 218
9108.006836 -320.274017 50133.429688 130 254 218
9183.904297 -320.217773 50124.625000 128 255 215
9258.626953 -320.121826 50109.609375 125 255 216
9336.744141 -320.143890 50113.062500 122 255 218
9421.734375 -320.399353 50153.046875 121 254 213
9509.512695 -320.744629 50207.093750 120 253 211
9596.987305 -321.074158 50258.679688 121 252 213
9669.708008 -320.908783 50232.789062 119 249 212
9754.002930 -321.127045 50266.960938 116 246 213
9752.593750 -318.542633 49862.414062 113 240 211
9720.664062 -315.009674 49309.386719 119 232 209
10320.949219 -331.859924 51947.003906 165 254 244
11147.498047 -355.669067 55673.921875 179 248 241
13089.816406 -414.440002 64873.511719 87 155 130
6685.102051 -573.534363 118441.460938 135 232 200
3931.543945 -328.305542 67798.875000 116 228 194
3023.400635 -245.914017 50784.074219 81 200 165
3004.847900 -238.218536 49194.871094 95 214 178
3258.973633 -251.986786 52038.171875 89 207 172
3339.689453 -252.006424 52042.230469 92 211 175
3418.980713 -251.920166 52024.417969 96 217 181
3495.221191 -251.618256 51962.066406 98 219 182
3570.039551 -251.229828 51881.855469 99 223 186
3645.413330 -250.896729 51813.062500 94 217 180
3720.251221 -250.541840 51739.773438 102 225 186
3797.698975 -250.373947 51705.105469 97 223 182
3873.886230 -250.131607 51655.058594 99 227 186
3951.208984 -249.970886 51621.867188 100 229 187
4028.185791 -249.795074 51585.558594 96 223 181
4103.130859 -249.502533 51525.148438 99 227 187
4178.898438 -249.270218 51477.167969 103 232 191
4252.261719 -248.905853 51401.925781 103 232 194
4326.739258 -248.618866 51342.660156 102 231 193
4400.903809 -248.324585 51281.886719 103 232 194
4473.502930 -247.953918 51205.339844 104 234 197
4548.257812 -247.713562 51155.703125 104 234 196
4620.515625 -247.347778 51080.164062 104 234 196
4693.917969 -247.054489 51019.597656 107 237 199
4767.527344 -246.781647 50963.250000 108 237 198
4839.969238 -246.458206 50896.457031 108 238 196
4914.907715 -246.270203 50857.632812 116 245 204
4988.630371 -246.028152 50807.644531 119 249 205
5063.835938 -245.865616 50774.082031 117 246 205
5139.583008 -245.733932 50746.886719 115 244 203
5214.332031 -245.559204 50710.804688 113 244 204
5290.507324 -245.455856 50689.460938 116 247 207
5365.699707 -245.310562 50659.457031 117 248 205
5441.775391 -245.209259 50638.535156 119 250 207
5517.845703 -245.110580 50618.156250 122 253 213
5592.875488 -244.969086 50588.937500 121 252 212
5668.811035 -244.870636 50568.605469 123 254 214
5743.327637 -244.714386 50536.339844 125 255 217
5818.383789 -244.585022 50509.625000 125 255 217
5893.479004 -244.460709 50483.953125 125 255 217
5967.953613 -244.314240 50453.703125 122 254 214
6043.828125 -244.228104 50435.914062 120 252 212
6118.989258 -244.115723 50412.707031 121 252 212
6194.945801 -244.037491 50396.550781 123 255 215
6271.269043 -243.975464 50383.742188 126 255 216
6347.114746 -243.896606 50367.457031 126 255 216
6423.828125 -243.852615 50358.375000 126 255 216
6500.309570 -243.800980 50347.710938 126 255 216
6577.123047 -243.762848 50339.835938 124 255 215
6654.489258 -243.745865 50336.328125 124 255 215
6732.216309 -243.742355 50335.605469 127 255 217
6810.506836 -243.759079 50339.054688 130 255 218
6889.164062 -243.788391 50345.109375 132 255 220
6967.668945 -243.811737 50349.929688 133 253 221
7046.357422 -243.840912 50355.957031 134 253 222
7125.360352 -243.880219 50364.074219 135 254 225
7204.103027 -243.909851 50370.195312 132 254 225
7282.953125 -243.942459 50376.925781 130 254 224
7361.367188 -243.959915 50380.531250 128 254 223
7439.593262 -243.970856 50382.789062 126 254 223
7518.055664 -243.989227 50386.585938 126 255 223
7596.333984 -244.001312 50389.082031 128 255 222
7674.185059 -243.999573 50388.722656 130 255 222
7751.732422 -243.988312 50386.394531 132 255 221
7828.808594 -243.962570 50381.082031 131 255 221
7905.565430 -243.927505 50373.839844 128 254 216
7982.476074 -243.897812 50367.707031 130 254 218
8058.454102 -243.840485 50355.867188 133 254 217
8134.787598 -243.794891 50346.453125 135 254 219
8210.538086 -243.732864 50333.644531 135 255 221
8285.131836 -243.637985 50314.050781 132 255 222
8360.290039 -243.561310 50298.218750 129 254 223
8433.773438 -243.437714 50272.691406 126 253 224
8507.846680 -243.333252 50251.117188 124 254 223
8581.981445 -243.232391 50230.292969 123 254 221
8655.616211 -243.119324 50206.941406 126 254 220
8730.975586 -243.056290 50193.921875 128 255 219
8805.397461 -242.968475 50175.789062 130 255 219
8880.545898 -242.902069 50162.074219 130 255 217
8956.077148 -242.847183 50150.742188 128 255 217
9031.125977 -242.780289 50136.925781 131 255 219
9107.257812 -242.743408 50129.308594 128 253 216
9183.291992 -242.704529 50121.281250 125 253 214
9258.196289 -242.636734 50107.281250 126 255 217
9336.390625 -242.655548 50111.164062 123 255 218
9421.234375 -242.845459 50150.382812 119 253 214
9508.721680 -243.099854 50202.917969 118 250 210
9595.917969 -243.342743 50253.078125 117 249 209
9668.679688 -243.218643 50227.449219 115 246 209
9752.843750 -243.381027 50260.984375 120 250 215
9757.551758 -241.573746 49887.761719 116 244 212
9733.692383 -239.093079 49375.476562 114 228 204
10302.916992 -251.105820 51856.246094 161 253 241
11034.271484 -266.854034 55108.433594 177 251 243
12840.710938 -308.161682 63638.933594 93 163 139
19733.660156 -1184.913940 359472.500000 62 137 106
6890.335938 -402.399323 122077.625000 126 222 189
3964.074463 -225.331711 68359.859375 115 226 192
3025.551270 -167.516479 50820.199219 82 200 164
3003.883545 -162.106934 49179.082031 93 213 177
3259.570312 -171.562622 52047.699219 91 208 174
3339.302490 -171.524719 52036.199219 93 211 176
3418.501709 -171.461853 52017.128906 98 217 182
3494.697510 -171.254715 51954.281250 96 216 180
3569.572510 -170.993591 51875.066406 89 212 175
3645.071777 -170.773209 51808.207031 91 214 177
3719.789551 -170.526474 51733.351562 102 224 188
3797.019287 -170.402847 51695.851562 97 222 184
3873.034668 -170.230957 51643.703125 99 227 186
3950.327881 -170.121033 51610.355469 100 229 189
4027.340576 -170.003632 51574.738281 98 228 187
4102.307129 -169.806076 51514.804688 101 230 189
4178.094238 -169.649368 51467.265625 99 228 187
4251.500488 -169.403656 51392.718750 100 229 190
4326.016113 -169.210358 51334.078125 100 229 191
4400.212402 -169.011749 51273.824219 102 232 194
4472.830078 -168.760605 51197.636719 104 234 199
4547.575684 -168.597107 51148.035156 103 233 197
4619.869629 -168.349838 51073.019531 103 233 195
4693.348633 -168.153336 51013.406250 104 235 195
4767.023438 -167.970245 50957.863281 105 233 194
4839.482422 -167.750961 50891.335938 110 239 198
4914.383301 -167.621979 50852.207031 113 243 199
4988.060547 -167.455978 50801.847656 121 251 207
5063.232422 -167.344513 50768.031250 115 244 203
5138.945801 -167.254089 50740.593750 114 243 202
5213.658691 -167.134308 50704.257812 112 243 203
5289.809570 -167.063492 50682.773438 116 247 207
5364.969727 -166.963913 50652.566406 120 251 209
5441.020996 -166.894531 50631.515625 119 250 208
5517.065430 -166.826904 50611.000000 122 253 212
5592.068359 -166.730118 50581.636719 117 248 207
5667.981445 -166.662766 50561.203125 120 251 211
5742.466309 -166.555817 50528.761719 122 253 213
5817.492676 -166.467239 50501.890625 123 253 213
5892.557129 -166.382095 50476.054688 123 253 214
5966.997070 -166.281754 50445.617188 122 252 213
6042.843750 -166.222702 50427.703125 123 253 213
6117.970703 -166.145615 50404.312500 124 253 214
6193.894043 -166.091827 50387.996094 126 255 216
6270.185059 -166.049103 50375.035156 126 255 216
6345.996582 -165.994888 50358.589844 127 255 217
6422.688965 -165.964752 50349.445312 128 255 218
6499.151855 -165.929474 50338.742188 127 255 217
6575.948730 -165.903458 50330.847656 125 255 216
6653.308105 -165.892059 50327.394531 124 255 216
6731.029785 -165.889877 50326.734375 126 255 218
6809.321289 -165.901611 50330.292969 130 255 219
6887.983398 -165.922028 50336.484375 132 255 220
6966.494629 -165.938370 50341.445312 133 254 221
7045.182129 -165.958527 50347.558594 135 254 223
7124.186035 -165.985596 50355.769531 134 254 226
7202.914062 -166.005737 50361.878906 133 254 227
7281.757324 -166.028061 50368.652344 132 255 227
7360.173340 -166.040298 50372.363281 131 255 227
7438.395508 -166.047928 50374.679688 130 255 227
7516.839355 -166.060303 50378.433594 127 255 224
7595.090332 -166.068207 50380.832031 128 255 223
7672.913574 -166.066696 50380.371094 129 255 221
7750.437988 -166.058807 50377.980469 130 255 221
7827.500000 -166.041275 50372.660156 129 254 219
7904.256348 -166.017654 50365.496094 128 254 217
7981.168945 -165.997757 50359.460938 129 255 218
8057.151855 -165.959091 50347.730469 134 255 220
8133.474121 -165.928085 50338.324219 134 255 220
8209.222656 -165.886078 50325.578125 134 255 220
8283.845703 -165.822327 50306.238281 131 255 220
8359.033203 -165.770966 50290.656250 128 253 220
8432.552734 -165.687775 50265.417969 125 252 220
8506.631836 -165.616989 50243.941406 125 254 222
8580.776367 -165.548752 50223.242188 124 254 219
8654.456055 -165.472839 50200.210938 126 255 220
8729.858398 -165.430939 50187.500000 127 255 219
8804.370117 -165.373032 50169.933594 127 255 218
8879.587891 -165.329285 50156.664062 127 255 218
8955.207031 -165.293716 50145.871094 127 255 218
9030.383789 -165.250656 50132.808594 127 255 218
9106.608398 -165.227325 50125.730469 126 255 216
9182.794922 -165.203735 50118.574219 125 255 216
9257.900391 -165.161224 50105.675781 126 255 219
9336.180664 -165.175613 50110.039062 122 252 217
9420.863281 -165.302078 50148.406250 118 248 214
9508.040039 -165.469910 50199.324219 117 249 211
9594.955078 -165.630478 50248.035156 111 244 205
9667.772461 -165.547089 50222.738281 112 247 207
9751.842773 -165.656158 50255.828125 118 250 213
9762.234375 -164.521835 49911.703125 112 241 205
9745.873047 -162.957962 49437.261719 117 233 206
10286.494141 -170.659088 51773.585938 158 251 239
10932.956055 -179.983704 54602.437500 179 253 246
12619.853516 -206.162338 62544.359375 95 168 143
22333.142578 -712.013550 406825.218750 62 136 103
7150.333496 -221.718719 126684.062500 115 210 178
4009.596191 -121.015327 69144.875000 114 224 191
3033.120117 -89.166527 50947.332031 82 200 165
3005.812012 -86.127045 49210.656250 92 212 176
3260.883545 -91.129051 52068.667969 92 210 175
3338.315918 -91.045319 52020.824219 96 214 179
3417.703125 -91.017578 52004.976562 98 216 181
3494.071289 -90.912567 51944.972656 98 219 183
3569.000732 -90.775673 51866.757812 96 219 182
3644.644287 -90.662567 51802.132812 97 220 183
3719.203125 -90.527924 51725.199219 103 225 189
3796.159668 -90.456078 51684.148438 96 221 183
3871.958984 -90.360184 51629.359375 100 228 186
3949.209717 -90.301361 51595.746094 99 228 187
4026.266357 -90.240509 51560.980469 96 225 184
4101.256348 -90.136604 51501.609375 100 229 188
4177.067871 -90.054367 51454.625000 100 229 188
4250.527344 -89.925446 51380.960938 100 229 188
4325.087891 -89.824120 51323.066406 100 229 191
4399.326172 -89.719872 51263.500000 101 231 193
4471.977051 -89.587509 51187.875000 104 234 198
4546.721191 -89.500969 51138.425781 103 234 197
4619.080078 -89.371223 51064.292969 105 235 196
4692.671875 -89.269295 51006.050781 107 238 198
4766.447754 -89.174179 50951.707031 105 236 196
4838.944336 -89.058617 50885.679688 114 245 203
4913.806152 -88.989578 50846.230469 113 243 199
4987.433105 -88.900711 50795.453125 118 248 204
5062.568848 -88.841072 50761.378906 114 245 203
5138.244141 -88.792580 50733.671875 115 246 204
5212.916016 -88.728462 50697.035156 115 246 206
5289.038086 -88.690559 50675.382812 118 249 209
5364.160156 -88.637253 50644.921875 116 247 206
5440.179688 -88.600082 50623.683594 113 244 202
5516.192871 -88.563873 50602.996094 119 250 208
5591.156250 -88.512062 50573.386719 117 248 206
5667.039551 -88.476028 50552.800781 121 252 212
5741.480469 -88.418770 50520.085938 124 255 215
5816.465820 -88.371323 50492.976562 124 253 214
5891.486816 -88.325661 50466.886719 125 254 216
5965.879395 -88.271896 50436.167969 125 255 216
6041.691895 -88.240257 50418.089844 126 255 216
6116.767090 -88.198792 50394.398438 125 255 216
6192.638184 -88.169708 50377.781250 123 254 214
6268.881836 -88.146584 50364.562500 122 253 213
6344.648926 -88.117401 50347.894531 124 254 214
6421.313477 -88.101250 50338.664062 127 255 217
6497.746582 -88.082329 50327.855469 126 255 216
6574.515137 -88.068375 50319.878906 124 255 216
6651.855957 -88.062302 50316.410156 124 255 216
6729.567871 -88.061234 50315.800781 126 255 218
6807.855957 -88.067650 50319.464844 129 255 219
6886.525391 -88.078789 50325.828125 130 255 220
6965.043945 -88.087769 50330.960938 131 254 222
7043.733398 -88.098694 50337.203125 132 253 225
7122.730957 -88.113197 50345.488281 132 254 226
7201.438965 -88.123833 50351.566406 131 255 226
7280.270020 -88.135735 50358.367188 129 255 226
7358.687012 -88.142426 50362.191406 128 254 225
7436.903809 -88.146606 50364.578125 129 255 224
7515.323730 -88.153076 50368.277344 128 255 222
7593.535156 -88.156998 50370.515625 127 255 220
7671.312012 -88.155846 50369.859375 126 255 217
7748.797363 -88.151398 50367.316406 128 254 217
7825.828125 -88.141922 50361.902344 127 253 216
7902.559082 -88.129280 50354.679688 128 253 219
7979.460938 -88.118782 50348.683594 129 255 218
8055.431152 -88.098297 50336.976562 129 255 218
8131.727051 -88.081734 50327.511719 129 254 218
8207.460938 -88.059448 50314.777344 130 254 217
8282.097656 -88.025925 50295.625000 130 255 219
8357.312500 -87.999107 50280.304688 130 255 220
8430.868164 -87.955482 50255.375000 128 255 218
8504.952148 -87.918106 50234.023438 124 254 218
8579.112305 -87.882187 50213.496094 123 253 217
8652.844727 -87.842575 50190.867188 123 253 217
8728.297852 -87.820984 50178.527344 123 255 218
8802.919922 -87.791481 50161.671875 124 255 218
8878.234375 -87.769341 50149.019531 125 255 218
8953.976562 -87.751778 50138.984375 124 254 215
9029.335938 -87.730782 50126.988281 123 254 214
9105.701172 -87.719841 50120.738281 124 255 216
9182.116211 -87.709572 50114.871094 124 255 217
9257.499023 -87.689682 50103.507812 125 254 218
9335.915039 -87.698631 50108.617188 122 249 217
9420.434570 -87.764275 50146.125000 119 248 214
9507.247070 -87.850052 50195.136719 118 248 212
9593.844727 -87.932457 50242.222656 111 244 206
9666.752930 -87.889091 50217.441406 112 247 207
9750.718750 -87.946136 50250.035156 115 250 210
9769.335938 -87.417534 49948.007812 115 243 208
9763.837891 -86.683128 49528.386719 109 226 197
10263.950195 -90.414024 51660.121094 153 249 235
10793.864258 -94.347794 53907.769531 179 255 247
12319.849609 -106.861099 61057.535156 106 180 156
7300.788086 -26.398134 129349.703125 116 210 178
4040.850098 -14.221319 69683.843750 120 229 195
3041.974365 -10.427860 51096.058594 85 201 165
3009.748047 -10.056232 49275.097656 94 214 177
3262.190674 -10.630613 52089.539062 93 211 176
3337.305664 -10.613377 52005.082031 97 215 180
3417.056152 -10.611346 51995.128906 98 217 181
3493.715820 -10.600031 51939.687500 99 220 184
3568.665771 -10.584154 51861.890625 99 222 185
3644.388184 -10.571215 51798.488281 95 219 182
3718.835938 -10.555215 51720.089844 93 217 180
3795.617432 -10.546372 51676.761719 90 216 178
3871.273438 -10.534833 51620.218750 97 227 187
3948.489502 -10.527918 51586.335938 96 227 187
4025.564941 -10.520909 51551.996094 97 226 185
4100.559570 -10.508841 51492.859375 101 230 189
4176.381348 -10.499310 51446.164062 105 232 191
4249.867188 -10.484375 51372.980469 103 232 192
4324.453125 -10.472651 51315.527344 103 232 194
4398.715820 -10.460581 51256.386719 104 234 196
4471.387207 -10.445221 51181.125000 106 236 201
4546.131348 -10.435152 51131.789062 102 234 197
4618.545898 -10.420172 51058.386719 102 232 194
4692.230957 -10.408514 51001.265625 103 233 195
4766.093750 -10.397629 50947.925781 103 235 195
4838.630859 -10.384252 50882.378906 112 244 201
4913.471191 -10.376168 50842.769531 111 240 199
4987.072266 -10.365762 50791.777344 107 237 193
5062.190918 -10.358784 50757.585938 109 240 198
5137.844727 -10.353098 50729.726562 113 244 202
5212.494141 -10.345589 50692.933594 112 244 204
5288.599121 -10.341149 50671.179688 113 245 205
5363.698242 -10.334900 50640.558594 118 249 209
5439.697266 -10.330541 50619.195312 115 246 205
5515.690430 -10.326294 50598.386719 118 249 209
5590.624512 -10.320210 50568.578125 117 248 209
5666.486816 -10.315985 50547.871094 121 252 212
5740.894531 -10.309262 50514.929688 120 253 212
5815.848633 -10.303688 50487.617188 121 254 213
5890.839355 -10.298325 50461.339844 122 255 213
5965.193848 -10.292005 50430.371094 120 253 212
6040.979492 -10.288285 50412.144531 121 255 213
6116.014648 -10.283399 50388.199219 123 255 214
6191.846680 -10.279957 50371.339844 123 255 212
6268.052246 -10.277214 50357.902344 121 254 213
6343.783203 -10.273769 50341.019531 124 254 215
6420.428223 -10.271872 50331.718750 126 255 216
6496.835449 -10.269643 50320.800781 125 254 215
6573.580566 -10.267995 50312.722656 125 254 215
6650.901367 -10.267274 50309.191406 126 255 214
6728.601562 -10.267148 50308.578125 124 255 214
6806.887207 -10.267908 50312.300781 125 255 218
6885.559570 -10.269229 50318.773438 127 255 221
6964.083984 -10.270302 50324.027344 129 254 224
7042.776367 -10.271595 50330.363281 128 253 226
7121.767578 -10.273292 50338.679688 128 253 226
7200.460449 -10.274526 50344.726562 128 254 225
7279.283691 -10.275917 50351.546875 127 255 224
7357.704102 -10.276717 50355.464844 125 253 220
7435.917480 -10.277214 50357.898438 126 254 219
7514.319824 -10.277959 50361.550781 127 255 220
7592.503418 -10.278392 50363.671875 126 255 217
7670.244141 -10.278223 50362.843750 127 255 218
7747.695801 -10.277675 50360.156250 130 255 219
7824.696289 -10.276545 50354.617188 130 255 219
7901.399902 -10.275050 50347.292969 129 254 220
7978.284668 -10.273818 50341.261719 130 255 221
8054.233887 -10.271418 50329.496094 130 255 219
8130.506348 -10.269471 50319.957031 129 255 218
8206.227539 -10.266870 50307.214844 131 255 218
8280.868164 -10.262981 50288.160156 131 255 219
8356.096680 -10.259886 50272.988281 131 255 219
8429.674805 -10.254839 50248.261719 130 255 218
8503.764648 -10.250501 50227.003906 128 254 219
8577.942383 -10.246347 50206.652344 125 254 219
8651.714844 -10.241789 50184.316406 124 253 219
8727.203125 -10.239323 50172.234375 124 255 218
8801.906250 -10.235989 50155.894531 126 255 220
8877.291992 -10.233499 50143.691406 128 255 220
8953.128906 -10.231568 50134.238281 126 255 217
9028.626953 -10.229285 50123.050781 124 254 214
9105.103516 -10.228142 50117.449219 124 254 215
9181.691406 -10.227142 50112.546875 125 255 217
9257.272461 -10.225046 50102.277344 124 254 218
9335.792969 -10.226206 50107.960938 123 250 218
9420.225586 -10.233768 50145.015625 121 249 215
9506.810547 -10.243526 50192.828125 122 250 214
9593.221680 -10.252940 50238.957031 116 247 208
9666.209961 -10.247973 50214.617188 115 250 210
9750.132812 -10.254585 50247.019531 117 251 211
9774.403320 -10.198850 49973.914062 113 242 207
9776.362305 -10.120891 49591.921875 104 223 193
10249.209961 -10.527836 51585.933594 147 246 231
10703.322266 -10.909398 53455.574219 177 255 248
12126.100586 -12.264866 60097.304688 113 189 165
7504.624512 178.434311 132961.109375 115 208 177
4088.682129 94.622932 70508.695312 126 234 201
3058.777588 68.949875 51378.304688 82 199 162
3018.102051 66.310905 49411.867188 94 214 177
3264.611572 69.956230 52128.195312 93 210 176
3335.561523 69.754539 51977.902344 95 213 178
3416.058594 69.757294 51979.953125 101 219 184
3493.309570 69.695152 51933.648438 95 216 179
3568.285889 69.591438 51856.367188 98 221 183
3644.118408 69.508621 51794.656250 98 223 186
3718.388672 69.400208 51713.871094 95 221 183
3794.900146 69.337303 51667.000000 91 217 179
3870.324463 69.257538 51607.562500 96 226 187
3947.476318 69.211296 51573.101562 91 222 182
4024.566650 69.165810 51539.210938 93 221 180
4099.547852 69.086555 51480.152344 98 225 184
4175.370117 69.024231 51433.710938 99 227 186
4248.876953 68.926659 51361.007812 99 228 189
4323.482422 68.850174 51304.011719 103 232 194
4397.770020 68.771477 51245.367188 103 233 195
4470.450684 68.670868 51170.402344 103 233 196
4545.179199 68.604675 51121.078125 101 231 194
4617.676270 68.507645 51048.773438 100 230 192
4691.521973 68.433540 50993.554688 101 230 193
4765.541992 68.364388 50942.023438 104 233 194
4838.154297 68.277618 50877.371094 108 237 196
4912.965332 68.224159 50837.535156 108 238 197
4986.533691 68.155396 50786.292969 111 242 200
5061.634277 68.109383 50752.007812 113 244 203
5137.264160 68.071785 50723.988281 112 244 204
5211.886230 68.022171 50687.023438 110 245 205
5287.968262 67.992798 50665.132812 109 244 204
5363.035645 67.951424 50634.304688 113 244 206
5439.007812 67.922539 50612.777344 116 245 206
5514.970703 67.894363 50591.781250 116 245 207
5589.864746 67.853996 50561.707031 112 243 204
5665.693359 67.825935 50540.796875 115 246 206
5740.048828 67.781235 50507.488281 111 246 206
5814.955566 67.744164 50479.863281 115 252 209
5889.892578 67.708420 50453.230469 117 254 210
5964.187012 67.666321 50421.859375 117 253 209
6039.928711 67.641518 50403.378906 118 255 211
6114.894531 67.608765 50378.972656 121 255 213
6190.658691 67.585556 50361.675781 121 255 212
6266.800293 67.566986 50347.839844 121 254 213
6342.463379 67.543785 50330.546875 123 255 215
6419.064453 67.531006 50321.027344 125 255 215
6495.420410 67.515991 50309.839844 125 254 214
6572.120117 67.504860 50301.546875 125 255 212
6649.408203 67.499962 50297.894531 125 255 213
6727.079590 67.499023 50297.195312 125 255 215
6805.349609 67.504044 50300.937500 126 255 217
6884.020020 67.512878 50307.523438 127 255 222
6962.548340 67.520134 50312.929688 128 255 225
7041.246094 67.528862 50319.429688 128 255 226
7120.236328 67.540169 50327.855469 126 254 226
7198.912598 67.548286 50333.902344 126 253 224
7277.735840 67.557587 50340.835938 129 255 226
7356.168945 67.563118 50344.957031 126 255 220
7434.388184 67.566589 50347.542969 127 255 220
7512.779297 67.571526 50351.222656 128 255 220
7590.931152 67.574242 50353.242188 126 255 217
7668.635254 67.572952 50352.281250 127 255 218
7746.051270 67.569168 50349.464844 129 255 221
7823.020020 67.561607 50343.828125 130 255 221
7899.699219 67.551712 50336.457031 129 254 220
7976.574219 67.543678 50330.468750 131 255 221
8052.506348 67.527885 50318.703125 132 255 220
8128.751465 67.514992 50309.093750 131 255 219
8204.456055 67.497902 50296.359375 133 254 219
8279.115234 67.472603 50277.511719 131 255 219
8354.374023 67.452629 50262.625000 131 255 219
8428.000000 67.419952 50238.277344 128 254 217
8502.113281 67.391739 50217.253906 130 255 220
8576.332031 67.364861 50197.226562 128 254 219
8650.183594 67.335609 50175.429688 125 253 219
8725.737305 67.320015 50163.804688 125 253 220
8800.589844 67.299332 50148.394531 127 254 220
8876.109375 67.284058 50137.011719 127 254 220
8952.117188 67.272728 50128.570312 127 254 218
9027.854492 67.259567 50118.765625 126 253 215
9104.511719 67.253433 50114.191406 125 255 216
9181.381836 67.248955 50110.859375 123 254 215
9257.278320 67.237488 50102.312500 122 254 215
9335.970703 67.246353 50108.914062 126 253 219
9420.302734 67.295349 50145.425781 124 249 214
9506.570312 67.357262 50191.562500 125 252 214
9592.672852 67.417015 50236.085938 122 251 213
9665.690430 67.384583 50211.921875 117 248 209
9749.458008 67.427017 50243.539062 119 250 211
9782.405273 67.120087 50014.828125 115 245 209
9795.931641 66.685760 49691.191406 104 226 195
10226.872070 69.077629 51473.503906 144 248 230
10567.146484 70.824875 52775.472656 176 255 249
11839.818359 78.746742 58678.480469 116 194 170
7651.927734 391.541138 135570.921875 106 201 172
4127.150879 205.551453 71172.085938 126 234 203
3074.214600 149.134064 51637.597656 81 196 162
3026.171875 143.087524 49543.984375 89 208 173
3266.775391 150.650757 52162.746094 90 209 174
3334.036621 150.048279 51954.140625 92 211 176
3415.254150 150.087479 51967.710938 98 217 182
3493.071777 149.978882 51930.113281 100 220 185
3568.065430 149.756653 51853.167969 99 220 185
3643.976318 149.581848 51792.640625 97 223 186
3718.099854 149.342758 51709.851562 93 222 184
3794.394043 149.199081 51660.109375 93 222 184
3869.628418 149.020523 51598.281250 93 224 184
3946.720459 148.919281 51563.226562 94 223 184
4023.812256 148.822021 51529.550781 101 228 186
4098.768066 148.651093 51470.367188 96 223 182
4174.580566 148.517136 51423.984375 100 226 189
4248.089355 148.307755 51351.488281 94 224 185
4322.700195 148.143845 51294.730469 101 230 193
4396.998047 147.975296 51236.375000 99 228 190
4469.672852 147.759064 51161.500000 96 226 188
4544.379395 147.616333 51112.082031 99 228 190
4616.942871 147.410080 51040.664062 102 232 194
4690.929199 147.255402 50987.109375 104 234 196
4765.091309 147.111298 50937.210938 106 235 196
4837.774902 146.926941 50873.378906 109 237 198
4912.562988 146.811386 50833.367188 110 241 199
4986.109863 146.662964 50781.976562 110 241 199
5061.200684 146.563843 50747.660156 113 244 204
5136.815430 146.482697 50719.562500 108 240 200
5211.417969 146.375565 50682.464844 108 242 202
5287.484375 146.312119 50660.496094 111 246 206
5362.528320 146.222641 50629.515625 115 246 208
5438.481934 146.160172 50607.886719 118 247 209
5514.422363 146.099136 50586.750000 119 249 210
5589.285645 146.011673 50556.464844 117 249 209
5665.086426 145.950775 50535.382812 117 249 209
5739.399902 145.853729 50501.777344 113 247 206
5814.268066 145.773193 50473.894531 115 251 208
5889.164551 145.695496 50446.992188 118 255 211
5963.408691 145.603912 50415.281250 118 255 211
6039.115234 145.549927 50396.585938 118 255 211
6114.023438 145.478317 50371.796875 119 255 212
6189.735840 145.427414 50354.167969 119 254 211
6265.825684 145.386520 50340.011719 120 254 211
6341.429688 145.335510 50322.347656 122 254 212
6417.991211 145.307404 50312.613281 124 254 213
6494.303223 145.274399 50301.187500 126 254 214
6570.968262 145.249969 50292.730469 126 255 213
6648.231445 145.239182 50288.996094 125 255 212
6725.877441 145.236923 50288.207031 127 255 216
6804.129395 145.247635 50291.917969 127 255 218
6882.794922 145.266830 50298.566406 127 255 220
6961.327637 145.282837 50304.105469 127 255 222
7040.034668 145.302078 50310.773438 128 255 226
7119.024902 145.326691 50319.292969 128 255 226
7197.692383 145.344238 50325.371094 127 254 224
7276.520020 145.364624 50332.429688 129 255 225
7354.966309 145.377045 50336.726562 127 255 223
7433.200195 145.385040 50339.496094 128 255 222
7511.589844 145.395874 50343.250000 128 255 222
7589.725098 145.401627 50345.242188 126 255 217
7667.411621 145.398758 50344.246094 125 254 216
7744.807617 145.390488 50341.382812 126 254 219
7821.759766 145.374130 50335.722656 127 252 218
7898.435059 145.352997 50328.402344 127 252 218
7975.309082 145.335907 50322.488281 129 254 220
8051.242676 145.302170 50310.804688 134 255 220
8127.471191 145.274353 50301.171875 134 255 220
8203.164062 145.237579 50288.437500 134 255 220
8277.845703 145.183762 50269.804688 132 255 219
8353.135742 145.141510 50255.175781 129 253 218
8426.814453 145.072296 50231.210938 127 252 216
8500.954102 145.012207 50210.402344 129 253 219
8575.210938 144.955200 50190.664062 126 254 220
8649.131836 144.893585 50169.328125 124 252 218
8724.741211 144.861099 50158.082031 124 253 220
8799.721680 144.818832 50143.449219 124 254 219
8875.356445 144.787964 50132.761719 124 254 218
8951.511719 144.766068 50125.179688 125 254 218
9027.447266 144.741028 50116.503906 126 255 216
9104.248047 144.730148 50112.742188 125 255 216
9181.345703 144.724152 50110.664062 119 252 211
9257.492188 144.703369 50103.468750 119 250 211
9336.330078 144.724670 50110.839844 129 255 222
9420.615234 144.829346 50147.089844 123 248 214
9506.673828 144.959366 50192.105469 126 252 215
9592.541016 145.084381 50235.394531 125 251 214
9665.536133 145.014267 50211.117188 115 246 206
9749.135742 145.103119 50241.878906 118 248 210
9788.823242 144.542130 50047.640625 118 248 212
9811.406250 143.739380 49769.687500 110 232 200
10209.886719 148.413254 51388.011719 142 249 230
10463.810547 150.929855 52259.382812 176 255 252
11627.000000 166.422623 57623.746094 118 198 174
7769.260254 610.363403 137649.734375 101 199 173
4163.724609 318.386353 71802.796875 121 229 202
3091.200195 230.235397 51922.902344 79 193 162
3035.464111 220.361420 49696.113281 88 206 173
3269.135254 231.466003 52200.429688 91 211 177
3332.465576 230.265350 51929.656250 91 212 178
3414.478516 230.381744 51955.906250 95 216 181
3492.918213 230.257248 51927.832031 97 217 182
3567.926025 229.917191 51851.140625 98 219 184
3643.908691 229.653519 51791.675781 92 219 182
3717.888672 229.277679 51706.917969 87 216 178
3793.975342 229.044846 51654.410156 89 219 181
3869.021240 228.760071 51590.187500 88 219 179
3946.052490 228.601807 51554.496094 93 222 183
4023.137939 228.452911 51520.917969 102 229 188
4098.062012 228.189438 51461.496094 102 229 188
4173.857422 227.983597 51415.074219 105 231 193
4247.357910 227.662430 51342.648438 101 229 190
4321.965820 227.411331 51286.015625 101 230 192
4396.266113 227.153366 51227.839844 101 230 192
4468.922852 226.821121 51152.914062 100 230 192
4543.600098 226.601196 51103.316406 101 231 193
4616.224121 226.288162 51032.718750 104 234 196
4690.351074 226.058075 50980.832031 103 233 195
4764.658691 225.844147 50932.585938 105 235 196
4837.416016 225.564896 50869.605469 107 237 198
4912.185059 225.386871 50829.457031 110 239 199
4985.716797 225.158569 50777.972656 106 237 195
5060.802734 225.006454 50743.667969 113 244 203
5136.409180 224.881775 50715.550781 106 238 198
5211.000977 224.717087 50678.410156 107 239 199
5287.054199 224.619385 50656.375000 111 242 204
5362.080078 224.481506 50625.281250 113 245 205
5438.017090 224.385193 50603.558594 116 246 206
5513.936035 224.290894 50582.292969 117 247 208
5588.770508 224.155716 50551.808594 118 250 210
5664.547852 224.061569 50530.578125 119 251 210
5738.818848 223.911194 50496.664062 113 247 204
5813.649414 223.786423 50468.523438 114 251 207
5888.500488 223.665726 50441.304688 119 255 212
5962.689453 223.523361 50409.199219 118 255 211
6038.356445 223.439362 50390.253906 118 255 211
6113.200684 223.327454 50365.015625 118 255 211
6188.856934 223.247635 50347.019531 119 254 211
6264.886719 223.183121 50332.464844 122 254 211
6340.421875 223.102768 50314.347656 123 254 212
6416.933105 223.058319 50304.320312 123 254 212
6493.186035 223.006042 50292.531250 126 254 214
6569.805664 222.967453 50283.832031 127 255 214
6647.035156 222.950226 50279.945312 126 255 213
6724.641113 222.945877 50278.964844 129 255 217
6802.869629 222.962021 50282.605469 128 255 219
6881.522461 222.991562 50289.265625 127 255 220
6960.054688 223.016571 50294.910156 127 254 222
7038.769043 223.046814 50301.726562 129 255 225
7117.762695 223.085144 50310.371094 129 255 225
7196.426270 223.112411 50316.519531 128 254 223
7275.263672 223.144409 50323.738281 130 255 224
7353.730469 223.164505 50328.269531 129 254 221
7431.982910 223.177734 50331.250000 130 255 222
7510.380859 223.195007 50335.148438 131 255 222
7588.509277 223.204010 50337.179688 129 254 220
7666.188477 223.199738 50336.214844 127 252 218
7743.572266 223.187057 50333.355469 128 253 220
7820.514648 223.162018 50327.707031 127 252 220
7897.189453 223.129913 50320.468750 128 253 219
7974.069336 223.104172 50314.660156 129 254 220
8050.006348 223.052795 50303.078125 130 255 221
8126.217285 223.009933 50293.410156 131 255 222
8201.908203 222.953735 50280.738281 131 255 220
8276.614258 222.872086 50262.324219 131 255 219
8351.936523 222.808411 50247.960938 130 253 219
8425.667969 222.703827 50224.375000 128 253 219
8499.838867 222.612671 50203.820312 129 254 222
8574.142578 222.526611 50184.410156 128 255 223
8648.148438 222.434433 50163.625000 126 254 222
8723.825195 222.386490 50152.812500 125 254 221
8798.954102 222.325577 50139.074219 124 255 220
8874.722656 222.281708 50129.179688 124 255 218
8951.039062 222.252228 50122.531250 124 255 218
9027.191406 222.219208 50115.085938 126 255 217
9104.145508 222.206314 50112.179688 127 255 218
9181.485352 222.202972 50111.421875 120 253 212
9257.890625 222.177246 50105.625000 119 249 211
9336.875977 222.213394 50113.773438 130 255 221
9421.113281 222.372864 50149.738281 125 250 216
9506.954102 222.567291 50193.585938 126 250 214
9592.541992 222.752701 50235.398438 125 249 213
9665.455078 222.643158 50210.695312 118 246 208
9748.825195 222.774338 50240.277344 117 248 208
9795.264648 222.066193 50080.574219 117 248 211
9826.990234 221.038177 49848.738281 114 237 205
10192.833984 227.483017 51302.183594 136 246 225
10362.458984 229.482910 51753.203125 172 255 251
11420.841797 250.983444 56602.023438 127 208 185
7920.792480 839.237244 140334.453125 100 197 171
4208.281250 433.994843 72571.171875 124 233 207
3111.138672 312.515564 52257.812500 78 192 164
3046.236084 298.250610 49872.472656 92 210 178
3271.916504 312.437988 52244.839844 95 214 182
3330.647705 310.383698 51901.328125 89 210 176
3413.540283 310.624725 51941.632812 96 216 181
3492.674072 310.520477 51924.199219 92 212 177
3567.703369 310.064209 51847.906250 97 218 183
3643.787598 309.717682 51789.957031 96 220 183
3717.599121 309.196991 51702.890625 93 220 181
3793.432617 308.862885 51647.019531 97 226 187
3868.256104 308.461975 51579.984375 91 222 182
3945.216064 308.244202 51543.570312 94 223 184
4022.300537 308.044617 51510.191406 98 225 184
4097.194824 307.688293 51450.609375 100 227 186
4172.979004 307.411041 51404.250000 100 227 186
4246.477051 306.978943 51331.996094 101 227 186
4321.084961 306.641479 51275.562500 98 227 188
4395.388184 306.294891 51217.613281 103 232 193
4468.026367 305.846619 51142.652344 103 233 195
4542.668457 305.548706 51092.839844 102 232 194
4615.363770 305.132324 51023.207031 104 234 196
4689.653809 304.833557 50973.250000 102 232 194
4764.129395 304.556519 50926.925781 105 234 195
4836.967773 304.185547 50864.894531 106 235 196
4911.710449 303.944275 50824.550781 106 235 195
4985.220215 303.635529 50772.917969 103 232 191
5060.301270 303.430511 50738.636719 111 242 202
5135.896484 303.262146 50710.488281 110 242 201
5210.477539 303.039917 50673.320312 110 240 201
5286.520508 302.907959 50651.257812 111 241 203
5361.525879 302.721313 50620.046875 113 244 204
5437.439453 302.590576 50598.187500 115 245 205
5513.330078 302.462280 50576.734375 115 245 205
5588.133301 302.278748 50546.042969 118 250 209
5663.883301 302.150787 50524.644531 119 251 209
5738.106934 301.945984 50490.398438 113 247 204
5812.889648 301.775726 50461.929688 114 250 207
5887.683105 301.610504 50434.304688 117 253 210
5961.801758 301.415497 50401.691406 118 253 210
6037.412598 301.299988 50382.378906 119 255 211
6112.171387 301.145447 50356.539062 119 254 211
6187.752441 301.034790 50338.035156 121 254 212
6263.704102 300.944702 50322.968750 123 255 212
6339.145020 300.832550 50304.214844 123 254 212
6415.587891 300.770111 50293.773438 125 255 213
6491.756836 300.696503 50281.464844 127 255 215
6568.310059 300.642181 50272.382812 127 254 214
6645.482422 300.617157 50268.199219 126 253 212
6723.033691 300.609680 50266.945312 130 255 216
6801.228027 300.630768 50270.472656 131 255 220
6879.860352 300.670532 50277.121094 130 255 221
6958.389648 300.704956 50282.878906 129 253 221
7037.110352 300.746765 50289.871094 130 255 222
7116.106934 300.799377 50298.667969 130 255 222
7194.765625 300.836670 50304.906250 129 254 221
7273.619141 300.881287 50312.363281 131 255 223
7352.108398 300.910004 50317.164062 129 253 219
7430.380859 300.929352 50320.402344 130 255 220
7508.790039 300.953796 50324.488281 130 254 221
7586.907715 300.966125 50326.550781 128 253 219
7664.572754 300.960480 50325.605469 128 253 218
7741.939941 300.943329 50322.742188 130 254 222
7818.862793 300.909454 50317.078125 130 255 223
7895.530273 300.866516 50309.894531 129 255 221
7972.405762 300.832245 50304.164062 126 254 219
8048.340332 300.763489 50292.667969 127 253 219
8124.528809 300.705444 50282.960938 128 253 219
8200.213867 300.630035 50270.351562 127 254 217
8274.942383 300.521332 50252.175781 127 254 216
8350.300781 300.437256 50238.113281 127 253 218
8424.093750 300.298950 50214.988281 127 254 219
8498.293945 300.177582 50194.695312 125 255 221
8572.655273 300.064026 50175.703125 125 255 222
8646.772461 299.944061 50155.644531 124 255 221
8722.549805 299.883301 50145.484375 122 255 221
8797.879883 299.808350 50132.953125 121 255 219
8873.818359 299.755249 50124.074219 120 253 216
8950.342773 299.722717 50118.632812 120 254 216
9026.774414 299.687653 50112.769531 123 254 215
9103.932617 299.677124 50111.007812 124 255 216
9181.582031 299.682770 50111.953125 122 255 216
9258.333008 299.659241 50108.019531 122 254 214
9337.495117 299.713531 50117.093750 128 255 220
9421.615234 299.924713 50152.414062 127 252 218
9507.111328 300.175934 50194.417969 125 249 213
9592.274414 300.412628 50233.996094 121 245 208
9665.074219 300.261475 50208.718750 123 248 210
9748.129883 300.428772 50236.695312 119 247 208
9803.607422 299.750214 50123.230469 115 244 208
9847.629883 298.734802 49953.437500 114 239 207
10169.528320 306.099152 51184.878906 127 239 217
10229.284180 305.520325 51088.089844 164 255 245
11154.600586 330.604126 55282.523438 135 218 195
8003.417969 1067.224365 141798.343750 100 195 170
4234.737793 549.630005 73027.406250 126 234 208
3123.692627 394.897766 52468.679688 87 200 172
3053.125732 376.206757 49985.269531 90 208 176
3273.667236 393.423462 52272.792969 92 210 178
3329.543213 390.498169 51884.121094 90 210 174
3412.967041 390.865356 51932.910156 91 211 176
3492.520508 390.782654 51921.917969 93 213 178
3567.564941 390.210449 51845.890625 99 219 183
3643.715820 389.781769 51788.937500 100 223 186
3717.427490 389.116211 51700.503906 93 219 181
3793.109863 388.680573 51642.625000 94 223 184
3867.798828 388.163239 51573.886719 86 216 177
3944.715820 387.885864 51537.035156 90 221 181
4021.800049 387.635620 51503.785156 95 225 184
